# .PCD v0.7 - Point Cloud Data file format
VERSION 0.7
FIELDS x y z
SIZE 4 4 4
TYPE F F F
COUNT 1 1 1
WIDTH 1369
HEIGHT 1
VIEWPOINT 0 0 0 1 0 0 0
POINTS 1369
DATA ascii
-0.27371341 -0.044201639 0.80799991
-0.26409289 -0.043979183 0.80793756
-0.25457197 -0.045512244 0.80791658
-0.2450837 -0.045800555 0.80760002
-0.2344127 -0.045346372 0.80800015
-0.22521786 -0.045663327 0.80799997
-0.21507075 -0.045533475 0.80677539
-0.20494071 -0.04546503 0.80551022
-0.1951762 -0.04547514 0.80563277
-0.18498185 -0.045370068 0.80387783
-0.17465912 -0.045227811 0.8013469
-0.16491386 -0.045492947 0.79999965
-0.15699467 -0.048395112 0.80000007
-0.1453011 -0.045847997 0.80000013
-0.38329053 -0.036439545 0.80707699
-0.37504539 -0.035037965 0.80580783
-0.36534855 -0.035100278 0.80638695
-0.3548851 -0.035257448 0.80666631
-0.3451097 -0.034368649 0.80636728
-0.33747602 -0.030169373 0.80800003
-0.32133895 -0.032274213 0.80800003
-0.31783086 -0.03562637 0.80800003
-0.30267599 -0.033958089 0.80800003
-0.29543677 -0.034805454 0.8079446
-0.28524509 -0.034920316 0.80788904
-0.27532426 -0.034768727 0.80774981
-0.26470441 -0.034989268 0.80646652
-0.25602242 -0.03640132 0.80779314
-0.24432895 -0.034604434 0.80777788
-0.23456782 -0.035014499 0.80610889
-0.22484572 -0.034996714 0.80631572
-0.21480489 -0.034986466 0.80578572
-0.20500332 -0.035060208 0.80545449
-0.1943851 -0.035534538 0.80236769
-0.18488939 -0.035700779 0.80186659
-0.17483105 -0.035281792 0.80022603
-0.16672 -0.035428002 0.80000007
-0.15508434 -0.032996666 0.80000007
-0.39187711 -0.021732649 0.80733341
-0.38422847 -0.022747273 0.80751997
-0.37442768 -0.027479855 0.80799997
-0.36498562 -0.024607839 0.80760002
-0.3553279 -0.024544274 0.80755985
-0.34431341 -0.024482416 0.8064
-0.33524653 -0.023904763 0.80738097
-0.32522607 -0.023004359 0.8078621
-0.31492537 -0.024633026 0.80767339
-0.30520171 -0.024556469 0.80799991
-0.29521018 -0.024050353 0.80780959
-0.28495246 -0.024506712 0.80628562
-0.2748363 -0.024539722 0.80742824
-0.26472941 -0.024635527 0.80740905
-0.25506485 -0.022734046 0.8067587
-0.24450853 -0.024268102 0.80731905
-0.23453081 -0.02450213 0.80624479
-0.22467183 -0.024497144 0.80604059
-0.21480148 -0.024641147 0.80473924
-0.20526068 -0.024214001 0.80275577
-0.19520122 -0.025055455 0.80186927
-0.18540396 -0.025118798 0.80049986
-0.17575066 -0.026853822 0.79999971
-0.16602534 -0.027092002 0.80000001
-0.40238672 -0.011641572 0.80760002
-0.39453614 -0.01384818 0.80666673
-0.38545263 -0.014690947 0.80739534
-0.37463742 -0.014578014 0.80550021
-0.36533594 -0.014637609 0.80600011
-0.35509032 -0.014759898 0.80457163
-0.34520942 -0.014501171 0.80535859
-0.33487895 -0.014620476 0.80615085
-0.32523039 -0.014983854 0.8072083
-0.31495818 -0.014552515 0.80675465
-0.30483007 -0.014881877 0.80773902
-0.29481232 -0.014815621 0.80569577
-0.28516346 -0.01458276 0.80572551
-0.27482891 -0.01468653 0.80682123
-0.26492843 -0.014742278 0.80679071
-0.25487319 -0.014662431 0.80416363
-0.24502771 -0.014844411 0.80532074
-0.23461179 -0.014529056 0.8054232
-0.22496092 -0.014776735 0.804977
-0.21535031 -0.014554645 0.802917
-0.20542876 -0.014623795 0.80195946
-0.19518499 -0.014741274 0.80082315
-0.18547659 -0.01492048 0.80015761
-0.17833088 -0.014984953 0.80000013
-0.40277362 -0.0069480874 0.80745459
-0.39505687 -0.0047582285 0.80568635
-0.38557002 -0.0051614973 0.80538106
-0.37488773 -0.0047489973 0.80358511
-0.36523387 -0.0051186658 0.80461252
-0.3550452 -0.0048552863 0.80350053
-0.34535754 -0.0050386782 0.80610001
-0.33421004 -0.0047875037 0.80607992
-0.32492194 -0.004930397 0.80470282
-0.31522474 -0.0048015416 0.80495095
-0.30505815 -0.0049008303 0.80576217
-0.29495192 -0.0048917565 0.80492884
-0.28528568 -0.0050878548 0.80617774
-0.27502701 -0.0048751952 0.8056429
-0.26487914 -0.0047487644 0.80569583
-0.25545365 -0.0048994916 0.80599982
-0.24526304 -0.0048916233 0.804694
-0.23471145 -0.0048757461 0.80208194
-0.22528999 -0.0048855622 0.80326563
-0.21536626 -0.0048795026 0.80265337
-0.20531566 -0.0048717754 0.80151033
-0.19524162 -0.0048640138 0.80016297
-0.18805619 -0.0051934598 0.80000007
-0.41114542 0.00841936 0.80800003
-0.40125439 0.006503073 0.80685729
-0.39470562 0.0047156857 0.80700004
-0.38481161 0.0056212423 0.80662864
-0.37521863 0.0049610054 0.80700004
-0.36481836 0.0048902882 0.80485737
-0.35452718 0.0049385536 0.80389327
-0.34543476 0.0049594287 0.80621731
-0.33468133 0.005049523 0.80610812
-0.32445654 0.0049361619 0.80335999
-0.31496614 0.0047345879 0.8055771
-0.30488408 0.0050743851 0.80444473
-0.2952255 0.0048982375 0.80567861
-0.2850222 0.0049890876 0.80513644
-0.27501193 0.0048120455 0.80437082
-0.26485169 0.0048924726 0.80477577
-0.25493664 0.0048872982 0.80436766
-0.24516156 0.0048880773 0.80436766
-0.23468794 0.0048748236 0.8020004
-0.22496192 0.0048757456 0.80208194
-0.21514536 0.0048730522 0.80183691
-0.20533782 0.0047826003 0.80137491
-0.19504936 0.004554505 0.80013305
-0.18871781 0.0039364444 0.80000013
-0.41100511 0.013470977 0.80800003
-0.40455621 0.014150088 0.80718756
-0.39543518 0.014432024 0.80567455
-0.38552758 0.014382469 0.80320925
-0.37454581 0.014392822 0.8016817
-0.364802 0.01475575 0.80214876
-0.35473889 0.01463287 0.8026123
-0.34503657 0.014727735 0.80300033
-0.3355543 0.014659414 0.80387783
-0.32451731 0.014622158 0.80168617
-0.31523085 0.014460595 0.80289376
-0.30477145 0.014746645 0.80181485
-0.29493436 0.014512644 0.80356902
-0.28522319 0.014800725 0.80361742
-0.27501965 0.014577109 0.80360037
-0.2648488 0.014663354 0.80416358
-0.25455371 0.014722276 0.8028006
-0.24447612 0.014625144 0.80212277
-0.23469973 0.014625217 0.80204117
-0.22477877 0.014612063 0.80142862
-0.2147411 0.014509748 0.8005414
-0.20558047 0.014955766 0.79999977
-0.19300157 0.016093113 0.80000013
-0.18865164 0.017565144 0.80000007
-0.40155673 0.023153242 0.80800003
-0.39503062 0.024849737 0.80680013
-0.38531843 0.024272792 0.80326545
-0.37506458 0.025077136 0.80181164
-0.36470693 0.024866365 0.80101657
-0.35494605 0.024786783 0.80099976
-0.34477255 0.024373332 0.80117637
-0.33557218 0.025214251 0.80300051
-0.32505745 0.025125813 0.80178219
-0.31501287 0.024756158 0.80083007
-0.30466035 0.025158858 0.80064404
-0.29458621 0.025059007 0.80125427
-0.28489205 0.025075139 0.80217922
-0.27467072 0.024981413 0.80151737
-0.26533824 0.025155973 0.80233371
-0.25469461 0.025051288 0.80140686
-0.24428532 0.025055207 0.80150008
-0.23527525 0.025057606 0.80162513
-0.22507201 0.025008 0.79999954
-0.21598095 0.025581855 0.80000001
-0.2044476 0.023307266 0.79999983
-0.19469613 0.021029454 0.80000013
-0.18881039 0.020978933 0.80000001
-0.41464916 0.038213242 0.80642861
-0.40537739 0.037363932 0.80177796
-0.39534649 0.033120494 0.80500001
-0.38505578 0.03434274 0.80409551
-0.37581098 0.034918718 0.8010999
-0.36413309 0.034233779 0.80034798
-0.3575781 0.033822298 0.80070597
-0.34229344 0.035022758 0.80043477
-0.33540776 0.035128593 0.80097783
-0.32607928 0.033659749 0.80081475
-0.31375781 0.036971707 0.80000007
-0.30407423 0.034897357 0.80059975
-0.29459703 0.035602167 0.80096132
-0.28491628 0.035356935 0.80174482
-0.27522939 0.035644107 0.80180424
-0.26526308 0.035507537 0.80179608
-0.25516382 0.035417229 0.80041641
-0.24512108 0.035040893 0.80024463
-0.2351715 0.035322506 0.80055785
-0.22619416 0.034537409 0.79999971
-0.2157326 0.03326682 0.80000007
-0.20307422 0.032186225 0.80000007
-0.42073414 0.049346805 0.80800003
-0.41380039 0.045777 0.80623084
-0.40460601 0.045123622 0.80417049
-0.39648044 0.045859762 0.80245465
-0.38152936 0.043016892 0.80680001
-0.37572563 0.044248901 0.80257142
-0.36786389 0.046562068 0.80033338
-0.34212336 0.043069337 0.80000001
-0.33446157 0.046215773 0.80000013
-0.32176962 0.046403736 0.80000013
-0.31516981 0.045323577 0.80145854
-0.30514511 0.045296606 0.80105895
-0.29503617 0.045052476 0.8002497
-0.2856147 0.045211032 0.8005414
-0.27498293 0.044919349 0.80003732
-0.26477858 0.045112893 0.80033302
-0.25510979 0.045079537 0.8002497
-0.24660669 0.044351801 0.79999995
-0.23333083 0.042529035 0.80000007
-0.2281484 0.041580766 0.80000007
-0.43149221 0.058233909 0.80800003
-0.42214817 0.055619452 0.80751997
-0.41562182 0.05535125 0.8069092
-0.40425161 0.055471703 0.80605143
-0.39529809 0.055872418 0.80306262
-0.38679019 0.057241406 0.80025011
-0.34108135 0.052100003 0.80000001
-0.33508986 0.052360501 0.80000013
-0.32418999 0.052538734 0.80000013
-0.31464997 0.051952679 0.80011123
-0.30520141 0.054802876 0.80063808
-0.29649037 0.052629277 0.80000007
-0.28736046 0.051405333 0.80000007
-0.27253211 0.054585736 0.80007136
-0.26542586 0.054036647 0.79999977
-0.25434726 0.050909147 0.80000007
-0.24544889 0.053720891 0.80000007
-0.22715601 0.053489335 0.80000001
-0.42300615 0.064956702 0.80606443
-0.41490826 0.065074779 0.80509108
-0.40548021 0.064986303 0.80352402
-0.39528927 0.064195015 0.80081803
-0.38582724 0.063993268 0.80129731
-0.37998268 0.062519997 0.80000001
-0.35349146 0.066459522 0.8003751
-0.34701762 0.064351395 0.80000013
-0.33552402 0.066787243 0.80000007
-0.310516 0.061825335 0.80000007
-0.30500901 0.063402861 0.80024225
-0.29940134 0.061825335 0.80000001
-0.27856135 0.068772003 0.80000001
-0.26281556 0.063909337 0.80000007
-0.25633204 0.066765197 0.80000013
-0.44022244 0.076286562 0.80600005
-0.43866724 0.076381207 0.80700004
-0.42172596 0.071934976 0.80428571
-0.41423833 0.074245535 0.80195254
-0.40504289 0.074654877 0.80127662
-0.39636901 0.074897237 0.80035877
-0.37095201 0.079886667 0.80000001
-0.36840388 0.078546397 0.80050004
-0.35385683 0.07342466 0.80061555
-0.34733334 0.078844666 0.80000001
-0.3060357 0.070249036 0.80100006
-0.28356293 0.072662137 0.80000001
-0.27977699 0.074850336 0.80000007
-0.25517425 0.071319118 0.80000007
-0.24104933 0.070161335 0.80000001
-0.43418318 0.085498713 0.80550003
-0.42585731 0.089213155 0.80266666
-0.41241413 0.082280748 0.80363637
-0.40485853 0.08486852 0.80259293
-0.39444649 0.08497601 0.80215019
-0.38813791 0.086159334 0.8002001
-0.37095201 0.081970669 0.80000001
-0.36814919 0.083138183 0.80090916
-0.34381008 0.086995281 0.80150002
-0.33865002 0.089264661 0.80000001
-0.23549201 0.088222668 0.80000001
-0.43279544 0.095137969 0.80487502
-0.42591843 0.094713271 0.80463862
-0.41777191 0.097361349 0.80320007
-0.40279904 0.093802758 0.8002001
-0.39644623 0.094613604 0.80000013
-0.34225619 0.092814133 0.80166674
-0.33802482 0.093085326 0.80000013
-0.32718801 0.097948007 0.80000007
-0.43348017 0.10490537 0.80707693
-0.42472968 0.10478837 0.80501688
-0.41509998 0.10609644 0.80313528
-0.40730625 0.10859957 0.80000007
-0.39943334 0.10072667 0.80000001
-0.377204 0.10836801 0.80000001
-0.43338728 0.11542661 0.80418193
-0.42513067 0.11531578 0.8040421
-0.4151237 0.11440428 0.80229276
-0.40572575 0.11339103 0.80066675
-0.377204 0.110452 0.80000001
-0.43258932 0.12870438 0.80742866
-0.42491952 0.12509747 0.8048501
-0.41629893 0.12506604 0.80066675
-0.4319545 0.13354307 0.80519998
-0.42468813 0.13500497 0.80244464
-0.41521358 0.13544933 0.80016196
-0.40802199 0.13760717 0.80000013
-0.4241432 0.1452888 0.80157882
-0.41540924 0.14490883 0.80090904
-0.40874192 0.14462961 0.80000013
-0.44095069 0.15773275 0.80733341
-0.4354187 0.15523973 0.804811
-0.42535165 0.15488788 0.80094105
-0.41410339 0.15483426 0.80050009
-0.40915868 0.15352133 0.80000001
-0.43434232 0.16516998 0.80418181
-0.42660415 0.16495188 0.80152941
-0.41699043 0.16425352 0.80050009
-0.40221202 0.16185734 0.80000001
-0.43460754 0.17516942 0.80122572
-0.42632225 0.17611682 0.8003999
-0.41666108 0.1796408 0.80000001
-0.43594357 0.18532071 0.80649996
-0.42479667 0.18480723 0.80060446
-0.41686314 0.18244474 0.80000013
-0.44022244 0.19876498 0.80600005
-0.43469557 0.19462606 0.80310005
-0.42824557 0.19458932 0.80053347
-0.41888401 0.19867468 0.80000001
-0.44076863 0.20321605 0.80700004
-0.43469411 0.20555957 0.80212903
-0.42953557 0.20400044 0.80000007
-0.43218192 0.21306421 0.80000007
-0.42724133 0.21356568 0.80031592
-0.4337036 0.22275645 0.80000007
-0.43694538 0.23827069 0.80000007
-0.43390861 0.2447385 0.80135715
-0.42750865 0.24622774 0.80080014
-0.43192726 0.25039172 0.801
-0.42725044 0.25170216 0.80042869
-0.43694535 0.26814133 0.80000001
-0.43694535 0.27022535 0.80000001
-0.42027333 0.32718801 0.80000001
-0.10454126 -0.33069173 0.81900007
-0.082732201 -0.33069175 0.81900012
-0.074270882 -0.33273411 0.8186844
-0.064918853 -0.33283669 0.81868017
-0.054930631 -0.33254328 0.81830794
-0.044704244 -0.33279997 0.81719071
-0.034712121 -0.33221757 0.8157621
-0.024776572 -0.33202407 0.81528604
-0.014860492 -0.33188808 0.81495267
-0.0049537588 -0.33186868 0.81490499
0.0047334591 -0.33148921 0.81380004
0.01471941 -0.33141261 0.81240022
0.024711404 -0.331799 0.81300014
0.032498743 -0.33134189 0.81114286
0.047827803 -0.33127785 0.81000006
0.0534546 -0.33127785 0.81000006
0.068267062 -0.33112979 0.81050003
0.073851757 -0.33127785 0.81000006
0.08932545 -0.33127785 0.81000006
0.093309022 -0.33115941 0.81040001
-0.11094174 -0.3214466 0.81900007
-0.10523373 -0.32482946 0.81867754
-0.09600728 -0.32120955 0.81900012
-0.083479837 -0.32390833 0.81900018
-0.074350782 -0.32538694 0.81747836
-0.06495522 -0.32516015 0.81826323
-0.054490328 -0.32525325 0.81788385
-0.0446583 -0.32538417 0.81638771
-0.034710992 -0.32512352 0.81573468
-0.024748227 -0.32455486 0.81430572
-0.014856685 -0.32474145 0.81477541
-0.0049544969 -0.32483807 0.81502038
0.0049431557 -0.32447097 0.81359148
0.014735174 -0.32479185 0.81136179
0.024780115 -0.32504451 0.81130445
0.034552988 -0.32501492 0.8108682
0.045464613 -0.32431895 0.81039238
0.052495055 -0.32613009 0.81019068
0.068365626 -0.32776114 0.81000006
0.07291396 -0.32846451 0.81000012
0.08932545 -0.32916778 0.81000006
0.093264215 -0.32930848 0.81000006
-0.12445388 -0.31077912 0.81900007
-0.11152361 -0.31672704 0.81900018
-0.10395463 -0.31585279 0.81875616
-0.094547391 -0.31483039 0.81866688
-0.084486559 -0.31466854 0.81848955
-0.07446076 -0.31513736 0.81753868
-0.064426824 -0.31505799 0.81534684
-0.05441701 -0.31483379 0.81523424
-0.044600986 -0.31503513 0.81528562
-0.034684677 -0.31499481 0.81518358
-0.024751451 -0.31468573 0.8143875
-0.01485066 -0.31471062 0.81444865
-0.0049514668 -0.31476659 0.81459159
0.004942819 -0.31458744 0.81361192
0.01345238 -0.31444782 0.81024247
0.024617253 -0.31615579 0.81000024
0.033995252 -0.31767976 0.81000018
0.046035066 -0.31672037 0.81028587
0.055053301 -0.31283924 0.81014818
-0.1506654 -0.30305788 0.81900012
-0.14863349 -0.30366746 0.81900007
-0.1301432 -0.3050898 0.81900007
-0.12488057 -0.30459198 0.81900018
-0.11497168 -0.30153397 0.81900012
-0.10311048 -0.3054072 0.81893116
-0.094445996 -0.30463272 0.81777561
-0.084603921 -0.30482119 0.81641471
-0.074785113 -0.30464667 0.81691498
-0.06448973 -0.30507684 0.81576473
-0.054575838 -0.30489391 0.81497991
-0.044550464 -0.30477816 0.81436706
-0.03465689 -0.30483907 0.81453043
-0.024740998 -0.30466378 0.81406081
-0.014987549 -0.3047331 0.81295443
-0.0047527929 -0.30475241 0.81328875
0.0048828782 -0.30487245 0.81357408
0.014635409 -0.30508322 0.81093627
0.020959834 -0.30497259 0.81000006
0.049468957 -0.30830178 0.81000012
0.054797802 -0.30785859 0.81037515
-0.15005583 -0.29940048 0.81900007
-0.14337707 -0.29364932 0.81900018
-0.13654369 -0.29205179 0.81900012
-0.12282019 -0.29544264 0.81882626
-0.11503424 -0.29471141 0.81845468
-0.10499566 -0.29415268 0.81872427
-0.094402425 -0.29480386 0.81816691
-0.085058175 -0.29481179 0.81518626
-0.074927039 -0.29499799 0.81535828
-0.064417705 -0.29513484 0.81557447
-0.05440218 -0.29501182 0.81497926
-0.044577122 -0.29505533 0.81485713
-0.034843452 -0.29530111 0.81448865
-0.024870884 -0.29518744 0.81417763
-0.014523848 -0.2950848 0.81216305
-0.0050870287 -0.29525641 0.81259567
0.0045799366 -0.29515034 0.81189996
0.01503411 -0.29435194 0.80999994
0.025742613 -0.29460987 0.81000018
-0.16001213 -0.28091019 0.81900007
-0.15361165 -0.28240359 0.81900018
-0.14416619 -0.28478152 0.81821769
-0.13513352 -0.28489095 0.81872988
-0.12445386 -0.28485292 0.81780851
-0.11507958 -0.28467301 0.81808704
-0.10495415 -0.28494701 0.81811136
-0.094529413 -0.28507519 0.81676191
-0.085028507 -0.285299 0.81617075
-0.075389571 -0.28533626 0.81492311
-0.064777464 -0.28482285 0.81437713
-0.054468907 -0.28507867 0.81465286
-0.044540312 -0.28491449 0.81418318
-0.034460302 -0.28514913 0.81364113
-0.025072616 -0.28576002 0.81184626
-0.014608046 -0.28538269 0.81258333
-0.0053789583 -0.28568444 0.81226671
0.0033622833 -0.28724343 0.81077796
0.01603638 -0.2883735 0.81000006
0.026961751 -0.28860795 0.81000012
-0.187295 -0.27470368 0.81900018
-0.16206661 -0.275695 0.81900012
-0.15459165 -0.27519742 0.81811112
-0.14502268 -0.27461401 0.8171134
-0.13495894 -0.27479973 0.81738305
-0.12564673 -0.27482012 0.81771123
-0.11537462 -0.27477491 0.81669229
-0.10526811 -0.27468714 0.8163501
-0.095289826 -0.27503884 0.8149783
-0.085630707 -0.27529207 0.815
-0.075185403 -0.27537379 0.81485176
-0.064543024 -0.27481633 0.81399965
-0.054428153 -0.27496815 0.81404036
-0.044510204 -0.27483058 0.81363231
-0.034749486 -0.2747412 0.81224453
-0.025192415 -0.27433097 0.81145847
-0.014899759 -0.27521014 0.81091875
-0.0082778875 -0.27457705 0.81000018
-0.18348059 -0.26313108 0.81900018
-0.17443161 -0.26403838 0.81900018
-0.16499221 -0.265149 0.81856388
-0.15423529 -0.26469955 0.81835002
-0.14465182 -0.26507649 0.81793344
-0.13479722 -0.26513922 0.81781834
-0.12514594 -0.26509967 0.81590921
-0.11538406 -0.26543131 0.81541681
-0.10555157 -0.26515785 0.81558841
-0.095034584 -0.26520827 0.81518513
-0.085264117 -0.26557025 0.81508893
-0.075637989 -0.26508573 0.81408119
-0.064982541 -0.26487187 0.81342828
-0.054360185 -0.26474118 0.81302029
-0.044504799 -0.26464725 0.8124584
-0.034294523 -0.26498792 0.8103044
-0.024639182 -0.26479965 0.81169575
-0.015684707 -0.26706198 0.81000024
-0.0051110103 -0.26713234 0.81000018
0.0016411501 -0.26633519 0.81000006
-0.21192718 -0.25104126 0.81900007
-0.20979369 -0.25104126 0.81900007
-0.19130339 -0.25388592 0.81900007
-0.18542917 -0.25530213 0.81876761
-0.17532222 -0.25499552 0.81770849
-0.16525654 -0.25510681 0.81790215
-0.15648486 -0.25530589 0.81851733
-0.1442402 -0.25529632 0.81827283
-0.13563417 -0.25525472 0.81591994
-0.12509102 -0.25522757 0.81508714
-0.11536217 -0.25549588 0.81506121
-0.10531147 -0.25517267 0.81491303
-0.095189288 -0.25563478 0.81567955
-0.085111119 -0.25533098 0.81463635
-0.075609416 -0.25509402 0.81377518
-0.065037474 -0.25520241 0.81412452
-0.054613996 -0.25512949 0.81310856
-0.044430096 -0.25495961 0.81100017
-0.035292402 -0.2561889 0.8101666
-0.023960793 -0.25700408 0.81000018
0.0028134002 -0.25109595 0.81000006
-0.31504613 -0.24155906 0.81900012
-0.23207685 -0.24772249 0.81900012
-0.2297063 -0.24819659 0.81900007
-0.20751797 -0.24592085 0.81900007
-0.1960445 -0.24456175 0.81900012
-0.1853382 -0.24494758 0.81874377
-0.17531703 -0.24487516 0.81740826
-0.16553783 -0.24476703 0.81757778
-0.15460221 -0.24520397 0.8172164
-0.14498638 -0.24515319 0.81674379
-0.13479006 -0.24507301 0.81525534
-0.12533243 -0.24537598 0.81509817
-0.11535975 -0.24558118 0.81504083
-0.1053701 -0.24539134 0.81440789
-0.09549284 -0.2454531 0.81461209
-0.085482456 -0.24513978 0.81357116
-0.075619072 -0.24530874 0.8132171
-0.065283686 -0.24548861 0.81331986
-0.055873781 -0.24550422 0.81116128
-0.044345364 -0.2455034 0.80999988
-0.038059048 -0.24546915 0.81
-0.026492849 -0.24218687 0.81000012
0.0035167502 -0.2489859 0.81000006
-0.3133077 -0.23871441 0.81900012
-0.30864561 -0.23895146 0.81900007
-0.2645534 -0.23255096 0.81900018
-0.23591962 -0.23270068 0.81900018
-0.21169013 -0.23207685 0.81900012
-0.204697 -0.23421031 0.81900018
-0.19621272 -0.23631324 0.81900018
-0.18525265 -0.23493662 0.81740826
-0.17539808 -0.23507521 0.81691319
-0.16501525 -0.2351339 0.81561923
-0.1548548 -0.23551176 0.81510645
-0.14507681 -0.23566137 0.815
-0.13534047 -0.23551787 0.81512779
-0.12522744 -0.23553026 0.81517017
-0.11527994 -0.23550847 0.81446922
-0.10531687 -0.23537248 0.81399953
-0.095401742 -0.23532587 0.8138364
-0.085499525 -0.2353009 0.81375468
-0.075490735 -0.23517077 0.81122458
-0.065711953 -0.23567481 0.81005251
-0.055212978 -0.23702899 0.81000018
-0.04434954 -0.23597381 0.8101334
-0.037365466 -0.23544644 0.81000018
-0.026258402 -0.23749785 0.81000006
-0.27237621 -0.22543931 0.81900007
-0.26479048 -0.22828397 0.81900012
-0.24363019 -0.22401696 0.81900018
-0.23673595 -0.22637551 0.8187145
-0.21235387 -0.22799949 0.81900007
-0.20378828 -0.22322682 0.81900012
-0.19538708 -0.22415231 0.81869245
-0.18555878 -0.22537164 0.81875533
-0.1747037 -0.22475 0.81530768
-0.16492145 -0.22508456 0.81514269
-0.15495712 -0.22500627 0.81485707
-0.14509301 -0.22507006 0.81508917
-0.13519131 -0.22553594 0.8146199
-0.12518077 -0.22560768 0.81446922
-0.11522084 -0.22549358 0.81406075
-0.10520246 -0.22522749 0.81310183
-0.095210761 -0.22498025 0.81220412
-0.085368916 -0.22500353 0.81195831
-0.075874433 -0.22570682 0.81119037
-0.067841306 -0.22794938 0.81000012
-0.059315849 -0.22374347 0.81
-0.29345256 -0.21302626 0.81900018
-0.28476241 -0.21324986 0.81836373
-0.27452305 -0.21296434 0.8182801
-0.26517564 -0.21521629 0.81900018
-0.25656191 -0.21449171 0.8186298
-0.2429814 -0.21903881 0.81900012
-0.23795581 -0.21790098 0.81900018
-0.22188348 -0.21263835 0.81900012
-0.21472858 -0.21457052 0.81883353
-0.20539741 -0.21535365 0.81900018
-0.19548173 -0.21540952 0.81822735
-0.18603578 -0.21577744 0.81888592
-0.1750719 -0.21476422 0.81626534
-0.16509624 -0.21471946 0.81540412
-0.15501857 -0.21465155 0.81550002
-0.14524947 -0.21464042 0.8154583
-0.13487162 -0.21542203 0.81372893
-0.12499332 -0.2153887 0.81326503
-0.11520052 -0.21555984 0.81391793
-0.10523929 -0.21541965 0.81338751
-0.095145211 -0.21490853 0.81112516
-0.08405032 -0.21547635 0.81000006
-0.077150211 -0.21398824 0.81
-0.063653179 -0.21311505 0.81000006
-0.059315853 -0.2152251 0.81000006
-0.32926941 -0.2012597 0.81900007
-0.29502571 -0.20499457 0.81893957
-0.28543696 -0.20615764 0.81828588
-0.27437201 -0.20586626 0.81794995
-0.26623872 -0.2043386 0.81762499
-0.25382024 -0.20560224 0.81893569
-0.24769461 -0.20351872 0.81900018
-0.23112863 -0.2012597 0.81900007
-0.22418581 -0.20486604 0.81831259
-0.21527566 -0.20547964 0.81844693
-0.20517857 -0.20518073 0.81761247
-0.19579601 -0.20549808 0.81860012
-0.18514378 -0.20500928 0.81691849
-0.17480883 -0.20453338 0.81504083
-0.16479328 -0.20475891 0.81505877
-0.15495773 -0.20452639 0.81455976
-0.14486367 -0.20445548 0.81427968
-0.13504006 -0.20503142 0.81421405
-0.12509406 -0.2050043 0.81374502
-0.1150623 -0.20541999 0.81293869
-0.10501824 -0.20510116 0.81167346
-0.095548995 -0.20518981 0.8104614
-0.084753677 -0.20572989 0.81
-0.076665156 -0.20854329 0.81000006
-0.34467798 -0.19225161 0.81900012
-0.32490084 -0.19435237 0.81835723
-0.31585458 -0.19270147 0.81857914
-0.30533716 -0.19328229 0.81900018
-0.29390511 -0.19507119 0.81794995
-0.28509963 -0.19452989 0.81739014
-0.27436748 -0.19561161 0.81863654
-0.26481974 -0.19534047 0.81791317
-0.25621584 -0.19589612 0.81865728
-0.24727625 -0.1978294 0.81900018
-0.23112863 -0.19912621 0.81900007
-0.22479483 -0.19529046 0.81797683
-0.21509683 -0.19527149 0.81774998
-0.2050551 -0.19512165 0.81712252
-0.19525121 -0.19524951 0.81765324
-0.18470752 -0.19461517 0.815
-0.17491315 -0.19474322 0.8155309
-0.16496788 -0.19470401 0.81536746
-0.15482613 -0.1944153 0.81416285
-0.14496306 -0.19485839 0.81399965
-0.13507865 -0.19444583 0.81391639
-0.1248617 -0.19486572 0.81260461
-0.11555985 -0.19540104 0.81068432
-0.10354317 -0.1949787 0.81000006
-0.096671559 -0.19842286 0.81
-0.087918751 -0.19904806 0.81000006
-0.38616261 -0.18561406 0.81900007
-0.37549514 -0.18134709 0.81900007
-0.35344902 -0.18348058 0.81900007
-0.34425566 -0.1852984 0.81870013
-0.33721858 -0.1828052 0.81873351
-0.32409775 -0.1860766 0.81844842
-0.31518739 -0.1853075 0.81813741
-0.30484101 -0.18537617 0.81833351
-0.29478207 -0.18539202 0.81802046
-0.28447947 -0.18535998 0.81708527
-0.27477217 -0.18433058 0.81766665
-0.26493245 -0.18535724 0.81853205
-0.25565907 -0.18485782 0.81785005
-0.24496034 -0.18271455 0.81814307
-0.23504575 -0.18457048 0.81814998
-0.22503513 -0.18528268 0.81753087
-0.21503274 -0.18522646 0.81728578
-0.20511578 -0.18524431 0.81736743
-0.19502537 -0.18509686 0.81671435
-0.18463296 -0.18463448 0.81467336
-0.17467763 -0.18457861 0.81442827
-0.16479298 -0.18459794 0.81451017
-0.15483007 -0.18452291 0.81418329
-0.1446771 -0.1852774 0.81258345
-0.1346744 -0.18500316 0.8131817
-0.12469741 -0.18527912 0.81130624
-0.11469268 -0.18492103 0.81012511
-0.1066969 -0.18630901 0.81016678
-0.099172354 -0.18216765 0.81000006
-0.08932545 -0.18920116 0.81000006
-0.38128608 -0.17687692 0.81900012
-0.37466741 -0.17570364 0.81833345
-0.36506471 -0.17423542 0.81900018
-0.35677525 -0.17348139 0.81880009
-0.34381974 -0.17658466 0.81808347
-0.33537844 -0.17582394 0.81793028
-0.32583907 -0.17448646 0.81900018
-0.31437716 -0.17604397 0.81775671
-0.30454126 -0.17501946 0.81665403
-0.29436868 -0.17520322 0.81687754
-0.28546795 -0.17457783 0.8186298
-0.27444023 -0.17524378 0.81721282
-0.26510796 -0.17508473 0.81772733
-0.25472802 -0.17531753 0.81741679
-0.24493387 -0.17537977 0.81700003
-0.23533885 -0.17519583 0.81670213
-0.22512805 -0.17492326 0.81632066
-0.21491419 -0.17519417 0.81683689
-0.20503484 -0.17523769 0.81704098
-0.19503507 -0.17517619 0.81675524
-0.18466571 -0.17476052 0.81481618
-0.174907 -0.17496952 0.81417745
-0.16471016 -0.17460559 0.81395876
-0.15493023 -0.17480642 0.81373882
-0.14488021 -0.17556392 0.81167442
-0.13539548 -0.17571972 0.81077272
-0.12487745 -0.17642796 0.81039989
-0.11554124 -0.17871484 0.81000012
-0.10761255 -0.17935425 0.81000006
-0.40038592 -0.16285679 0.81900007
-0.37762865 -0.16996846 0.81900012
-0.36214104 -0.16585949 0.81900012
-0.35373351 -0.16100776 0.81900018
-0.3441596 -0.16288342 0.81833345
-0.33415684 -0.16539067 0.81809098
-0.32540071 -0.16521622 0.81734043
-0.31446728 -0.16364393 0.81704879
-0.30484912 -0.16502587 0.81769258
-0.29425365 -0.16511568 0.81624019
-0.28445303 -0.16531944 0.8166666
-0.27462131 -0.16518831 0.81688011
-0.26466888 -0.16533007 0.81716335
-0.25473592 -0.16533008 0.81716323
-0.24460493 -0.1650494 0.81620854
-0.23498821 -0.16530049 0.81687772
-0.22478397 -0.16519223 0.81620008
-0.2146014 -0.16502604 0.81565297
-0.20465705 -0.1649998 0.81553072
-0.19479965 -0.16504927 0.81577563
-0.18461195 -0.16481727 0.81418723
-0.17510134 -0.16468146 0.81317759
-0.16525254 -0.1646758 0.81217879
-0.15505713 -0.16503094 0.81219047
-0.14802031 -0.16609353 0.81031597
-0.13330334 -0.16410267 0.81000024
-0.12672715 -0.16512178 0.81000018
-0.40323058 -0.15005583 0.81900007
-0.38436604 -0.15361673 0.81796008
-0.37756991 -0.15247226 0.81733346
-0.36353162 -0.15434404 0.81887114
-0.35488886 -0.1544793 0.81794453
-0.34494832 -0.15512034 0.81571424
-0.3351008 -0.15515082 0.81587756
-0.32496735 -0.15505157 0.81534702
-0.31505403 -0.15506139 0.8166607
-0.30428928 -0.15505518 0.81735563
-0.29422143 -0.15526325 0.81646937
-0.28470212 -0.15525976 0.81593037
-0.27479455 -0.15507862 0.8156296
-0.26502782 -0.15535006 0.81642222
-0.25533903 -0.1550888 0.81598055
-0.24522375 -0.15505522 0.81552088
-0.23501274 -0.15501651 0.81585193
-0.22459894 -0.1551642 0.81593865
-0.21443522 -0.15498815 0.81502038
-0.20461008 -0.15505147 0.8153469
-0.19450353 -0.15489683 0.81453031
-0.18466081 -0.15489636 0.81230015
-0.17554675 -0.15490068 0.81190503
-0.16547397 -0.15500988 0.81059104
-0.15534638 -0.15515922 0.810489
-0.14825054 -0.15489332 0.81000024
-0.13269871 -0.15942602 0.81000006
-0.12687352 -0.15652244 0.81000018
-0.10437425 -0.1543231 0.81400001
-0.4037478 -0.14152184 0.81900018
-0.3935113 -0.14183792 0.81900018
-0.3845762 -0.14505944 0.81757146
-0.37515265 -0.14530469 0.81708008
-0.36573514 -0.14449055 0.81846166
-0.35536212 -0.1454915 0.81773168
-0.34535488 -0.14537446 0.81667358
-0.33498996 -0.1451869 0.81561255
-0.32514933 -0.14521714 0.81579572
-0.31504744 -0.14520936 0.81590205
-0.30497697 -0.1451761 0.8153829
-0.29468131 -0.14521843 0.81578571
-0.28510767 -0.14539117 0.81676191
-0.27503982 -0.14508951 0.81581503
-0.26503056 -0.14530058 0.81608707
-0.25515765 -0.14533554 0.81676936
-0.24526525 -0.14520411 0.81590915
-0.23546155 -0.14510873 0.81469977
-0.22488545 -0.14495495 0.81474501
-0.21433336 -0.14501113 0.81463248
-0.204555 -0.14500129 0.81440407
-0.19501927 -0.14464249 0.81326669
-0.18495396 -0.14526771 0.81074429
-0.17537963 -0.14531219 0.81074542
-0.16531909 -0.14555617 0.81030446
-0.15627395 -0.14741695 0.81000006
-0.14752766 -0.14840685 0.81
-0.42385435 -0.13796601 0.81900007
-0.41034222 -0.13512135 0.81900007
-0.40471032 -0.13471353 0.81873351
-0.39414307 -0.1349363 0.818905
-0.38451055 -0.13440682 0.81792682
-0.37497109 -0.1352964 0.81720841
-0.36501119 -0.1349287 0.81595671
-0.35452288 -0.13452271 0.81820017
-0.3451072 -0.13525973 0.81676006
-0.33535969 -0.13506888 0.81638479
-0.3248879 -0.13521743 0.81491655
-0.31488055 -0.1350483 0.81459987
-0.30493128 -0.13537003 0.81537235
-0.29464123 -0.13521829 0.81511992
-0.28470489 -0.13511412 0.81502098
-0.27487198 -0.13529773 0.81640762
-0.2649686 -0.1354969 0.81659085
-0.25534239 -0.1354837 0.81620008
-0.24546733 -0.13498735 0.81560045
-0.23566133 -0.13516912 0.815
-0.22527994 -0.13516736 0.81483006
-0.21513504 -0.1349393 0.8141737
-0.20495777 -0.13509846 0.8142724
-0.19477142 -0.13478632 0.8126905
-0.18527099 -0.13521564 0.81050009
-0.175538 -0.1356508 0.81010801
-0.16414429 -0.13587843 0.80999994
-0.15712841 -0.13068244 0.81000006
-0.40180823 -0.12160922 0.81900007
-0.39392072 -0.12482252 0.81847388
-0.38446078 -0.12508434 0.8161459
-0.37488702 -0.12482718 0.81726319
-0.36488336 -0.12540631 0.81593889
-0.35496774 -0.12514479 0.81506824
-0.34522152 -0.12486327 0.8157233
-0.33558911 -0.12522507 0.81722236
-0.32468873 -0.12508014 0.81441665
-0.31464863 -0.12519154 0.81399977
-0.3051061 -0.12529945 0.81524491
-0.29493767 -0.12519011 0.81453043
-0.28509837 -0.12521727 0.81471419
-0.27514204 -0.12549673 0.81583041
-0.26506501 -0.12516376 0.81517792
-0.25549555 -0.12527119 0.81506121
-0.24522018 -0.12514111 0.81526417
-0.23532285 -0.1254705 0.81513351
-0.22565284 -0.12520564 0.81463248
-0.21528873 -0.12534723 0.81450921
-0.20465328 -0.12495141 0.81386262
-0.19497561 -0.12493172 0.8130697
-0.18623622 -0.12476887 0.81032252
-0.17488624 -0.12461196 0.81005251
-0.16444324 -0.12702502 0.81000006
-0.15778486 -0.12824416 0.81000012
-0.41447991 -0.11229943 0.81900018
-0.40426224 -0.11436782 0.81840003
-0.39493152 -0.11503573 0.81750005
-0.38484401 -0.11545869 0.81614286
-0.37526491 -0.115412 0.81540489
-0.36523744 -0.11537673 0.81516063
-0.35491616 -0.1153528 0.81562513
-0.34456667 -0.11550572 0.81418741
-0.33480009 -0.11512729 0.81454897
-0.32509822 -0.11545086 0.81567341
-0.31494018 -0.11526299 0.81457436
-0.3051475 -0.11534869 0.81476468
-0.29505625 -0.1153329 0.81485707
-0.28512782 -0.11532506 0.81479579
-0.27520233 -0.11531688 0.8147347
-0.26529819 -0.11531585 0.81473446
-0.2553305 -0.11528724 0.81453043
-0.24526183 -0.11521216 0.81397933
-0.23540728 -0.11523247 0.81412226
-0.22527009 -0.11510687 0.8132447
-0.21494421 -0.11487274 0.81159192
-0.20452383 -0.11483175 0.8118546
-0.19504219 -0.11521892 0.81334865
-0.187727 -0.11512935 0.81057161
-0.17232075 -0.1181628 0.81000006
-0.42029852 -0.10240776 0.81900007
-0.41466394 -0.104178 0.81774282
-0.40446794 -0.10499669 0.81680799
-0.39508986 -0.10506611 0.81703794
-0.3855114 -0.10526026 0.81571746
-0.37468767 -0.10527129 0.8136481
-0.36532781 -0.10544407 0.81664163
-0.3550446 -0.10559125 0.81612241
-0.34481174 -0.1052192 0.81351209
-0.33444569 -0.10528819 0.81150973
-0.32508615 -0.10500986 0.81398022
-0.31502232 -0.10543253 0.81468618
-0.3050321 -0.10544806 0.81430411
-0.29532748 -0.10539821 0.81393862
-0.28492028 -0.1050192 0.81390721
-0.27459016 -0.10539662 0.81344676
-0.26487049 -0.10524668 0.81342852
-0.25524691 -0.10535216 0.81426507
-0.24483877 -0.10513078 0.81257135
-0.23541439 -0.10535505 0.81284446
-0.22527407 -0.1048651 0.81173605
-0.21505418 -0.10505953 0.81200004
-0.20488888 -0.10491161 0.81085724
-0.19500892 -0.10497036 0.8106252
-0.18884948 -0.10515082 0.81
-0.42371458 -0.092158109 0.81850022
-0.41526264 -0.094892539 0.81714618
-0.40564358 -0.094966866 0.81743419
-0.39547339 -0.094657585 0.81640482
-0.38495091 -0.094883151 0.81532645
-0.37491602 -0.09558437 0.81286854
-0.36512139 -0.095188484 0.8126142
-0.35534218 -0.095234521 0.81356102
-0.34521133 -0.095134199 0.8120001
-0.3346422 -0.095255382 0.81261104
-0.32512957 -0.095562436 0.81519604
-0.31481227 -0.095293447 0.81288093
-0.30492169 -0.095291652 0.81287497
-0.29505768 -0.095293172 0.81290472
-0.28476417 -0.095245309 0.81207031
-0.27467775 -0.095297001 0.81343734
-0.26424962 -0.095039234 0.81125015
-0.25478661 -0.095294282 0.8124401
-0.2447301 -0.095107123 0.81130445
-0.23550576 -0.09505868 0.81088895
-0.22519049 -0.095003754 0.81042892
-0.21470676 -0.09503343 0.81069398
-0.2046748 -0.094952248 0.81000012
-0.1966484 -0.096441701 0.81000018
-0.18920116 -0.098469004 0.81000006
-0.42322236 -0.084293045 0.81858832
-0.415034 -0.084937282 0.81723255
-0.40482274 -0.085471295 0.81523895
-0.39515027 -0.085037202 0.81575006
-0.38478202 -0.085608639 0.81426394
-0.37474889 -0.085263416 0.8134048
-0.36412656 -0.085449025 0.81104171
-0.35525596 -0.085458852 0.81336707
-0.34459537 -0.085269228 0.81155115
-0.33516473 -0.085472047 0.81168908
-0.3248567 -0.085004538 0.81090009
-0.31482726 -0.085196167 0.81140018
-0.30480531 -0.085449629 0.81279987
-0.29476309 -0.085327737 0.81209528
-0.28518474 -0.08546564 0.81269085
-0.27461174 -0.085388854 0.81182998
-0.26486221 -0.08527226 0.81184006
-0.25472248 -0.084957182 0.81130612
-0.24481264 -0.085426494 0.81176484
-0.23492604 -0.085068539 0.81115574
-0.22484967 -0.085294962 0.81026947
-0.21475159 -0.085252002 0.81054181
-0.20511475 -0.085715085 0.81024373
-0.44732279 -0.070405334 0.81900007
-0.43167719 -0.07476715 0.81900024
-0.42482069 -0.074371867 0.81882244
-0.41451228 -0.074468896 0.81675553
-0.40525576 -0.075098127 0.81591648
-0.39568281 -0.075620815 0.81421739
-0.38469878 -0.075278446 0.81195462
-0.37503615 -0.074980684 0.81253195
-0.36476603 -0.075515464 0.81137067
-0.35445333 -0.075331286 0.81250954
-0.34467265 -0.075688764 0.81262219
-0.33511347 -0.075297765 0.81204259
-0.3253746 -0.075604014 0.81227463
-0.31485751 -0.075367793 0.81118381
-0.30461809 -0.075389318 0.81048
-0.29467449 -0.075372033 0.81018192
-0.285198 -0.075491406 0.8116079
-0.27513507 -0.075254187 0.81089365
-0.26524308 -0.075282261 0.8102451
-0.25491729 -0.075396374 0.81033981
-0.24493265 -0.075430535 0.81215692
-0.23484319 -0.075556993 0.81121755
-0.22493955 -0.075179122 0.81088495
-0.21621954 -0.075792007 0.81
-0.2067849 -0.079478554 0.81000006
-0.4321264 -0.064491443 0.81900018
-0.42456427 -0.064946614 0.81789988
-0.41442534 -0.064403512 0.81611997
-0.4047983 -0.064363442 0.81577295
-0.39515626 -0.06491515 0.81408304
-0.38448882 -0.065812245 0.81173486
-0.37492284 -0.06524089 0.81240475
-0.36488158 -0.06552656 0.81062227
-0.3533248 -0.066401348 0.81094116
-0.34540325 -0.065696806 0.81051427
-0.33509237 -0.065601185 0.811019
-0.32512954 -0.065355383 0.81171995
-0.31471634 -0.065478966 0.81081653
-0.30455205 -0.065597616 0.81008518
-0.29469433 -0.065327704 0.8104682
-0.28518662 -0.065490007 0.81093901
-0.27489376 -0.065232866 0.81024021
-0.26512307 -0.065595046 0.81042558
-0.25528666 -0.065323666 0.81000012
-0.24550635 -0.065560639 0.81040835
-0.23623428 -0.06555701 0.81009746
-0.22242092 -0.066169009 0.81000006
-0.21797456 -0.065667324 0.81000012
-0.43487698 -0.052110419 0.81833339
-0.42445171 -0.054475233 0.81900012
-0.41468346 -0.054899916 0.81720418
-0.40520057 -0.054547291 0.81676733
-0.39525652 -0.054367274 0.81310827
-0.38546515 -0.055321664 0.81116688
-0.37480512 -0.056134276 0.81047624
-0.36553115 -0.054896455 0.80999988
-0.35237384 -0.054508008 0.81069577
-0.34592175 -0.054915998 0.8117826
-0.33546361 -0.055932071 0.81043494
-0.325048 -0.055522002 0.81047302
-0.31539229 -0.057361718 0.81009102
-0.30326104 -0.057909157 0.81000012
-0.29421857 -0.057262406 0.81
-0.28440055 -0.055640697 0.80999988
-0.27512059 -0.055588473 0.81032664
-0.26517639 -0.055567663 0.81004089
-0.25632086 -0.057172306 0.81000006
-0.24536097 -0.058919095 0.81000018
-0.23621118 -0.055630084 0.80999994
-0.22366531 -0.059433077 0.81000006
-0.43422467 -0.045438189 0.81650019
-0.42426392 -0.044403482 0.81797308
-0.41461962 -0.043863308 0.81631267
-0.40549839 -0.044564355 0.81459987
-0.39511201 -0.044627029 0.81155813
-0.38650495 -0.046896659 0.81011134
-0.37347889 -0.04965651 0.81000006
-0.3650068 -0.046197314 0.81
-0.3552216 -0.046254165 0.81014985
-0.34472543 -0.044904914 0.81186038
-0.33504906 -0.044799358 0.8107233
-0.32562241 -0.044540729 0.81000012
-0.31543714 -0.044127572 0.81000012
-0.30475155 -0.040291913 0.81000006
-0.29414099 -0.044029709 0.81000006
-0.28328934 -0.045757953 0.80999988
-0.27579764 -0.046899378 0.81000006
-0.26590765 -0.048779391 0.81000018
-0.25437826 -0.043373253 0.81000012
-0.24218684 -0.042201005 0.81000006
-0.23779628 -0.046612926 0.81000012
-0.22577536 -0.042904351 0.81000006
-0.43453512 -0.033693489 0.81723821
-0.42475328 -0.034434751 0.81552386
-0.41453281 -0.034677707 0.81270456
-0.40532428 -0.034472119 0.81341183
-0.39463234 -0.034479 0.81109113
-0.38717163 -0.033278346 0.81047642
-0.35519177 -0.030244051 0.81000006
-0.34201679 -0.036593623 0.81181824
-0.33585253 -0.034445319 0.81168902
-0.32563838 -0.034735259 0.81004256
-0.31404591 -0.034336269 0.81
-0.30555779 -0.034951709 0.8101142
-0.2938998 -0.0347321 0.81000018
-0.28593886 -0.035113398 0.81000018
-0.25448248 -0.033682648 0.81000006
-0.24664137 -0.03555825 0.81000024
-0.4451893 -0.022046115 0.81900007
-0.43383804 -0.025023999 0.81745166
-0.42482281 -0.024957143 0.81461906
-0.41499335 -0.024570016 0.81257778
-0.40534353 -0.024919549 0.81246006
-0.39527109 -0.025046028 0.81097448
-0.38500881 -0.025976773 0.81033343
-0.37539354 -0.023757599 0.80999988
-0.35237837 -0.027430652 0.81000012
-0.33328742 -0.028234482 0.81000006
-0.32552323 -0.026215773 0.81000018
-0.29671326 -0.027631611 0.81000006
-0.26234955 -0.0267273 0.81000006
-0.25525209 -0.026791241 0.81000018
-0.24968927 -0.027430652 0.81000012
-0.44377446 -0.015202641 0.81854844
-0.43423963 -0.015325695 0.81893122
-0.42495298 -0.014556339 0.81630766
-0.41484201 -0.015040896 0.81340408
-0.40537378 -0.015912183 0.81163645
-0.39598605 -0.018588537 0.81000006
-0.38567024 -0.0145359 0.81000006
-0.37488556 -0.018990451 0.81000006
-0.35659847 -0.01758375 0.81000006
-0.31017739 -0.01242585 0.81000012
-0.44353685 -0.004751821 0.81726938
-0.4340758 -0.0046190741 0.81763893
-0.42548448 -0.0048588356 0.8165642
-0.41485116 -0.0045562936 0.8134253
-0.40718597 -0.0039691972 0.81210542
-0.38473246 -0.0014067 0.81000006
-0.33971807 -0.0049234503 0.81000006
-0.31158406 -0.0063301502 0.81000006
-0.44355613 0.0043514352 0.81646448
-0.43430182 0.0051685497 0.8131634
-0.42505434 0.0049482058 0.81442529
-0.41448769 0.0047213552 0.81252164
-0.40576148 0.0048055146 0.81224239
-0.39472818 0.0047485894 0.81012517
-0.38613921 0.0028134002 0.81000012
-0.37535447 0.0067990506 0.81000012
-0.34212956 0.0037177075 0.81000006
-0.33901474 0.0025789503 0.81000006
-0.44316846 0.014054809 0.81604171
-0.43581989 0.01394878 0.81508833
-0.4246825 0.013722841 0.8122288
-0.41638482 0.014474154 0.81096298
-0.40698391 0.016049169 0.81000012
-0.40386292 0.023349268 0.81075019
-0.39879948 0.023210552 0.81000012
-0.4421213 0.036828566 0.81466681
-0.43483719 0.035242196 0.81592506
-0.42663026 0.035654765 0.8150003
-0.41989997 0.038684253 0.81000006
-0.44214118 0.043778013 0.81400013
-0.43458745 0.044451848 0.81150013
-0.42613241 0.04506021 0.81215703
-0.41663137 0.046237018 0.81028587
-0.37488556 0.041497651 0.81000006
-0.43235332 0.055835858 0.81166685
-0.42765537 0.055201694 0.8101055
-0.41145971 0.052751247 0.81
-0.40723968 0.055564653 0.81000006
-0.43279833 0.063511267 0.81271446
-0.42884335 0.065254763 0.81057143
-0.44156313 0.078071855 0.81000006
-0.43959376 0.078775205 0.81000006
-0.44203293 0.086031862 0.81125009
-0.4360126 0.086465575 0.81019068
-0.42974687 0.087918751 0.81000006
-0.44162169 0.095255658 0.81140006
-0.43870315 0.094862342 0.81015402
-0.4419142 0.10459609 0.8113336
-0.43794572 0.10460184 0.81015402
-0.44161934 0.11116867 0.81200004
-0.4388904 0.11112931 0.81000006
-0.4324474 0.12647218 0.81066674
-0.44193825 0.16200496 0.81000012
-0.43818706 0.16247386 0.81000012
-0.44100046 0.18498105 0.81000006
-0.43748373 0.18498105 0.81000006
-0.27138284 -0.33185008 0.82900006
-0.26459792 -0.33420572 0.82815021
-0.25715011 -0.33534127 0.82846171
-0.24468316 -0.33591467 0.82886243
-0.23608968 -0.33415362 0.82900035
-0.22336473 -0.33303574 0.82900023
-0.21481279 -0.33455706 0.82762218
-0.20441903 -0.33477154 0.82811117
-0.19527397 -0.33481815 0.82694429
-0.18539761 -0.33418471 0.824889
-0.17520915 -0.33396849 0.82357138
-0.16542463 -0.33443362 0.82471442
-0.15503584 -0.33364472 0.82277131
-0.14488141 -0.33329716 0.82191402
-0.13481325 -0.33311105 0.82145697
-0.12489623 -0.33329785 0.8219142
-0.11500245 -0.33357418 0.82259989
-0.10486943 -0.33348358 0.82158047
-0.094936207 -0.3333424 0.82202846
-0.085072957 -0.33325773 0.82099974
-0.077991448 -0.33520636 0.82100004
-0.062735349 -0.33185571 0.82100004
-0.053467628 -0.33577669 0.82100004
-0.2915386 -0.32177222 0.82900006
-0.28779539 -0.32349986 0.82900012
-0.27426222 -0.32033253 0.82900006
-0.26618141 -0.32417691 0.82894319
-0.25569347 -0.32252079 0.82880974
-0.24472888 -0.32326946 0.82882637
-0.23501162 -0.32485101 0.82766664
-0.2251673 -0.32395399 0.82847393
-0.21508014 -0.32496554 0.82829386
-0.205061 -0.32512841 0.82600015
-0.19535401 -0.32488137 0.8251307
-0.18510067 -0.32499492 0.82304281
-0.17513937 -0.32525787 0.82324529
-0.16491905 -0.3248401 0.82218361
-0.15483683 -0.3246592 0.82173449
-0.14487164 -0.32470798 0.82185704
-0.13479777 -0.32451603 0.82136697
-0.12480883 -0.32449925 0.82132608
-0.11535378 -0.3249746 0.82123774
-0.10218257 -0.32508317 0.82100004
-0.094709001 -0.32519016 0.82099962
-0.086474985 -0.32558221 0.82100004
-0.079132088 -0.32864767 0.82100004
-0.062022448 -0.32864767 0.82100004
-0.059170838 -0.32437027 0.82100004
-0.31025463 -0.31097448 0.82900006
-0.30881494 -0.31025463 0.82900006
-0.29064289 -0.31492257 0.82850003
-0.28439054 -0.31429657 0.82877785
-0.2737318 -0.31540722 0.82900029
-0.26527509 -0.31487864 0.82790488
-0.25530419 -0.3150968 0.82791287
-0.24492249 -0.3155044 0.82821959
-0.2349401 -0.31504476 0.82760358
-0.22519666 -0.31498361 0.82719034
-0.21561995 -0.31443983 0.82679504
-0.20534381 -0.31455147 0.82455128
-0.19548327 -0.31477401 0.82414329
-0.18497673 -0.31497493 0.82311803
-0.17521547 -0.31511688 0.82320052
-0.1648618 -0.31473121 0.82189769
-0.15482186 -0.31464112 0.82165301
-0.14473343 -0.31442088 0.8210811
-0.13478625 -0.31449848 0.82128537
-0.12465792 -0.31480604 0.82117736
-0.11536836 -0.31397229 0.82099956
-0.10786751 -0.31263486 0.82100004
-0.076755755 -0.31534019 0.82100004
-0.31097448 -0.30449587 0.82900017
-0.30588028 -0.3032681 0.82885212
-0.29344413 -0.30423635 0.82857162
-0.28531292 -0.3032738 0.82873935
-0.2743375 -0.30404463 0.82817262
-0.26465675 -0.30485499 0.82539153
-0.2553966 -0.30433235 0.82763839
-0.24506913 -0.30462414 0.82792306
-0.2354753 -0.30485767 0.82714987
-0.22549886 -0.30446103 0.82508546
-0.21554139 -0.30442628 0.82466716
-0.20547435 -0.30473816 0.82520431
-0.19531594 -0.30444187 0.82356048
-0.18517572 -0.3051253 0.82325041
-0.17492257 -0.30503026 0.82308537
-0.16491891 -0.30484924 0.82218355
-0.15542994 -0.30461764 0.82099956
-0.14470869 -0.30457917 0.82145822
-0.13498752 -0.30473498 0.8219583
-0.12485966 -0.30496919 0.8209998
-0.11448471 -0.30517673 0.82099962
-0.10634634 -0.30335516 0.82099992
-0.32146728 -0.2923198 0.82883346
-0.31427631 -0.29441884 0.82889771
-0.30455893 -0.29453284 0.82756418
-0.29492986 -0.29508331 0.82682961
-0.28540909 -0.29487473 0.82793015
-0.27439895 -0.294476 0.82582635
-0.26443267 -0.29484874 0.82554913
-0.25546315 -0.2950592 0.82811123
-0.24516562 -0.29480585 0.82725012
-0.23550063 -0.29478049 0.82648927
-0.22556721 -0.29452291 0.82500023
-0.21513005 -0.29458094 0.82309312
-0.20543152 -0.29488209 0.82393044
-0.19519193 -0.29425833 0.82364041
-0.18492545 -0.29488271 0.82226539
-0.17492068 -0.29486814 0.82222456
-0.16498522 -0.29496932 0.82251036
-0.15470749 -0.29444298 0.82104033
-0.14591971 -0.2960794 0.82100004
-0.13428819 -0.29525396 0.82099962
-0.12637803 -0.29488206 0.82099998
-0.11049976 -0.29656711 0.82100004
-0.10403613 -0.29556906 0.8210001
-0.099093333 -0.29728001 0.82100004
-0.35056615 -0.28002101 0.82900006
-0.34334958 -0.28218707 0.82866669
-0.33904856 -0.28002101 0.82900006
-0.3214123 -0.28829926 0.82900006
-0.31490991 -0.28461722 0.82771432
-0.3050479 -0.28489694 0.82766658
-0.2950367 -0.28555804 0.82802033
-0.28460693 -0.2855517 0.8278293
-0.27472562 -0.28476828 0.82606113
-0.26462412 -0.28498402 0.82504672
-0.25482771 -0.28497761 0.8256979
-0.2449668 -0.28462335 0.82400018
-0.23555054 -0.28495401 0.82452404
-0.22551796 -0.28444573 0.82480037
-0.2154645 -0.28506243 0.82373124
-0.20513241 -0.28519082 0.82348019
-0.19544795 -0.28472969 0.82420027
-0.18466933 -0.28449079 0.82112205
-0.17466089 -0.28444767 0.8209995
-0.16501018 -0.28487405 0.82122189
-0.15534775 -0.28704017 0.82099998
-0.14828356 -0.2887252 0.82100004
-0.13305338 -0.28574395 0.82100004
-0.11620297 -0.28017038 0.82100004
-0.10836106 -0.28017035 0.82100004
-0.35056615 -0.27570191 0.82900006
-0.34343272 -0.27574012 0.82860017
-0.33553168 -0.27386275 0.82857168
-0.325037 -0.27293211 0.82815403
-0.31430325 -0.27502677 0.82733351
-0.30556765 -0.27522811 0.82757771
-0.29506874 -0.27515566 0.82660866
-0.28429747 -0.27481809 0.82545483
-0.27476606 -0.27476215 0.8261838
-0.26448479 -0.27502292 0.82448971
-0.2547811 -0.27478409 0.82500041
-0.24486357 -0.27525583 0.82317412
-0.23502609 -0.27493721 0.82307893
-0.22565812 -0.27437168 0.82500035
-0.21534646 -0.27466133 0.82402009
-0.20505664 -0.2748673 0.82245827
-0.19513062 -0.27480417 0.82259101
-0.18428509 -0.27432463 0.82099962
-0.1748938 -0.27481842 0.821217
-0.16499715 -0.27529889 0.82099962
-0.15694022 -0.2736524 0.82100004
-0.11572771 -0.27826929 0.82100004
-0.37313312 -0.26204202 0.82860005
-0.36601889 -0.26360852 0.82900023
-0.35845512 -0.26261857 0.82860005
-0.34260532 -0.26568982 0.82870394
-0.33487049 -0.26497409 0.82727885
-0.32468897 -0.26500177 0.82654727
-0.31512573 -0.26501462 0.82838094
-0.30529872 -0.26546627 0.82841659
-0.29434177 -0.26459122 0.82645017
-0.28438625 -0.26463398 0.82392901
-0.27499601 -0.26512593 0.82687223
-0.26450032 -0.26504907 0.82376951
-0.25507137 -0.26483974 0.82409853
-0.24431579 -0.26478794 0.82257146
-0.23505315 -0.26474446 0.82236159
-0.22533473 -0.26467726 0.82380968
-0.21506284 -0.26479062 0.82345486
-0.20511992 -0.26478484 0.82296193
-0.19503972 -0.26505187 0.8227554
-0.1854282 -0.26591229 0.82099974
-0.17739372 -0.26698169 0.82100004
-0.16040288 -0.26448652 0.82100004
-0.15398677 -0.26477167 0.82100004
-0.14614485 -0.26448652 0.82100004
-0.3721616 -0.25554615 0.82900006
-0.36571428 -0.25629732 0.82900029
-0.3555423 -0.25494608 0.82892025
-0.34433615 -0.25394621 0.8261894
-0.335096 -0.25479162 0.82663983
-0.32500261 -0.25479254 0.82645833
-0.31468305 -0.25490957 0.82638484
-0.30506104 -0.25486705 0.82739109
-0.29502198 -0.25477093 0.82586968
-0.28455287 -0.25491434 0.82440937
-0.27526128 -0.25497001 0.82510817
-0.2650913 -0.25508833 0.82287788
-0.2551049 -0.25486618 0.8231253
-0.2450933 -0.25490093 0.82300037
-0.23480169 -0.25478381 0.82189786
-0.22508828 -0.25510117 0.82291877
-0.21492815 -0.25488231 0.8216086
-0.20492972 -0.25467312 0.8224349
-0.19565949 -0.25493369 0.82166654
-0.18635251 -0.2525098 0.82100004
-0.17893833 -0.2516543 0.82100004
-0.15378715 -0.25427774 0.8209998
-0.14782989 -0.25424671 0.82100004
-0.38223946 -0.24510837 0.82900006
-0.37430161 -0.24475579 0.82850033
-0.36527526 -0.24494033 0.82721263
-0.35538653 -0.24489507 0.82836586
-0.34462234 -0.24495545 0.82425016
-0.33508644 -0.24498282 0.82620001
-0.32554892 -0.24514323 0.82636851
-0.3145276 -0.2449573 0.82215154
-0.30460179 -0.24467328 0.8234548
