# .PCD v0.7 - Point Cloud Data file format
VERSION 0.7
FIELDS x y z rgb
SIZE 4 4 4 4
TYPE F F F F
COUNT 1 1 1 1
WIDTH 995
HEIGHT 1
VIEWPOINT 0 0 0 1 0 0 0
POINTS 995
DATA ascii
-0.015115649 0.10425307 0.65999997 2.1230204e-39
-0.0038971433 0.10836571 0.66000003 2.2148517e-39
0.0043032966 0.10671209 0.65999997 1.5709214e-39
0.014876192 0.10832381 0.66000003 2.4003192e-39
0.11754286 0.10182858 0.66000003 7.5614766e-39
0.12181716 0.10170287 0.66000003 8.8529259e-39
0.13765715 0.10120001 0.66000003 8.6671067e-39
0.14017144 0.10874286 0.66000003 1.0415566e-38
0.15777142 0.10245715 0.66000003 1.0783276e-38
0.16723698 0.10674623 0.65999997 8.2061327e-39
0.17262144 0.10575715 0.65999997 9.6798111e-39
0.18402851 0.1046757 0.66002369 9.3142669e-39
0.1917143 0.10811429 0.66000003 7.0994208e-39
0.21685715 0.10120001 0.66000003 9.6769244e-39
0.22593047 0.1047528 0.65999997 8.8554636e-39
0.23558058 0.1051854 0.65999985 9.1233947e-39
0.24223951 0.1050313 0.65999997 7.8398543e-39
0.26431432 0.10371429 0.66000003 5.3520269e-39
0.2744343 0.10220572 0.66000003 1.0604278e-38
-0.37298211 0.11429273 0.66872722 1.1248579e-38
-0.36416358 0.11481879 0.66787809 1.0234434e-38
-0.35427773 0.11482418 0.66369575 1.0970561e-38
-0.34511355 0.11493119 0.66384488 1.1063113e-38
-0.33521208 0.11470954 0.66343153 1.1247151e-38
-0.32520568 0.11487765 0.66216385 1.1338986e-38
-0.31524596 0.11494055 0.66318452 1.1062751e-38
-0.3052564 0.11538717 0.66114885 1.0140437e-38
-0.29468074 0.1150949 0.66109991 1.0971276e-38
-0.2853716 0.11480461 0.66272283 9.5883525e-39
-0.27507511 0.11481528 0.66326469 1.0232997e-38
-0.26488444 0.11475773 0.66179621 1.1060957e-38
-0.25546849 0.11495499 0.66336972 1.0325194e-38
-0.24468802 0.11499437 0.66345322 1.0418471e-38
-0.23492663 0.11519631 0.66372126 1.0879087e-38
-0.22492394 0.11498617 0.66339046 1.0787609e-38
-0.21497649 0.11507481 0.66390622 1.0787608e-38
-0.20508163 0.11520269 0.66462517 9.40395e-39
-0.19503975 0.11524948 0.66490668 6.6380868e-39
-0.1849732 0.11507825 0.66462934 4.7952672e-39
-0.17494969 0.11525282 0.66464645 4.1498936e-39
-0.16516367 0.11518464 0.66408789 4.0580581e-39
-0.15507701 0.11520241 0.66462529 3.8725906e-39
-0.14460514 0.1149264 0.66303557 3.1371766e-39
-0.1351869 0.11496947 0.66329658 3.59744e-39
-0.12488987 0.11479666 0.66229677 4.0580539e-39
-0.11479323 0.11479279 0.66226548 4.2431682e-39
-0.10463773 0.1147214 0.66185915 3.4137662e-39
-0.094482452 0.11463711 0.66137469 2.6754809e-39
-0.084972367 0.11459512 0.66157877 2.9517091e-39
-0.075429477 0.11457439 0.66061884 3.3215664e-39
-0.065436222 0.11449445 0.66013098 3.8733025e-39
-0.055795904 0.11393474 0.66006058 3.3219167e-39
-0.044855025 0.11225577 0.66017133 3.598519e-39
-0.038845722 0.11201143 0.66000003 3.2297337e-39
-0.014457144 0.11372308 0.65999997 2.9506217e-39
-0.005246155 0.11401315 0.65999997 1.8453559e-39
0.0034571434 0.11073335 0.65999997 1.3872476e-39
0.015993651 0.11153652 0.66000003 2.8591449e-39
0.14017144 0.11000001 0.66000003 1.0232251e-38
0.16682287 0.11113144 0.66000003 8.8525699e-39
0.18598731 0.11069842 0.66000003 8.9451201e-39
0.22770002 0.11078572 0.66000003 7.562564e-39
-0.38384575 0.12635572 0.66783345 1.1432617e-38
-0.37909085 0.12706605 0.66600007 1.2262728e-38
-0.3645041 0.12487262 0.66746312 1.1154589e-38
-0.35524353 0.12458825 0.66466671 1.0599263e-38
-0.34521943 0.12483511 0.66256684 1.0324834e-38
-0.33607113 0.12448879 0.66295755 1.1247147e-38
-0.32499728 0.12350297 0.66209108 1.0601054e-38
-0.31531397 0.12460996 0.66267788 1.0603218e-38
-0.30519846 0.12485534 0.66210926 1.0877645e-38
-0.29537842 0.12464825 0.66186422 9.4961513e-39
-0.28446177 0.12396054 0.66175568 1.0233352e-38
-0.27474487 0.1247571 0.6614458 1.0511018e-38
-0.26523569 0.1249383 0.66215253 1.1246428e-38
-0.25517684 0.12460716 0.66136891 1.1709921e-38
-0.24487984 0.12472907 0.66159678 1.1155315e-38
-0.23462434 0.12490194 0.66199988 1.05103e-38
-0.2246916 0.12497149 0.66271865 1.0971996e-38
-0.21471468 0.12494595 0.66333848 1.097199e-38
-0.20464469 0.12506001 0.66320282 9.9567679e-39
-0.19455272 0.12506847 0.66324973 7.283096e-39
-0.18512249 0.1251073 0.66403478 5.4399093e-39
-0.17541212 0.12513618 0.66306418 4.1491663e-39
-0.16536924 0.12501074 0.6630919 3.5045199e-39
-0.15529376 0.12507761 0.66351551 3.7818243e-39
-0.14515881 0.12509276 0.66299969 4.0594888e-39
-0.13494116 0.12485179 0.66209364 4.7023415e-39
-0.12490829 0.12490746 0.66239041 4.1516886e-39
-0.11476883 0.12485719 0.66212487 3.0464187e-39
-0.1046256 0.12479352 0.66178113 2.6761956e-39
-0.094521068 0.12477032 0.66165608 2.4910869e-39
-0.085091777 0.12469796 0.6614545 2.6754795e-39
-0.075479284 0.12453955 0.66043729 3.505236e-39
-0.065487638 0.12382649 0.66024059 3.6889126e-39
-0.05715175 0.12440597 0.66039997 2.4928889e-39
-0.046679705 0.12673984 0.65999997 3.966217e-39
-0.014708571 0.12477143 0.65999997 2.6747607e-39
-0.0063642864 0.12139287 0.65999997 1.6620465e-39
-0.38558954 0.1314943 0.66700006 1.1337167e-38
-0.37836882 0.13107073 0.66325009 1.1985059e-38
-0.36461312 0.13163355 0.66647625 1.1431538e-38
-0.35457438 0.13509662 0.66306138 1.0416667e-38
-0.34538296 0.13351157 0.66111356 1.078545e-38
-0.3343592 0.1351482 0.66172212 1.0234078e-38
-0.32515833 0.1351528 0.66205442 1.0418103e-38
-0.3160671 0.13496523 0.66355562 1.1247863e-38
-0.30491179 0.13478196 0.66151065 1.1339702e-38
-0.29511219 0.13492413 0.66149986 1.1062394e-38
-0.28437051 0.13491802 0.66131383 1.0508501e-38
-0.27477404 0.13469064 0.66096848 1.1062027e-38
-0.26464248 0.13486695 0.66118163 9.5876224e-39
-0.25493711 0.13493142 0.66139632 1.1524088e-38
-0.24520253 0.13473026 0.6616565 1.1985429e-38
-0.23453337 0.13479102 0.66145432 1.1431175e-38
-0.22471724 0.13508128 0.66279668 1.1525173e-38
-0.21478313 0.13496226 0.66306049 1.1801395e-38
-0.20459235 0.13513213 0.66303086 1.0141515e-38
-0.19459701 0.13502441 0.66265553 9.128445e-39
-0.18513685 0.13506296 0.66254222 7.1926997e-39
-0.17535548 0.13498457 0.66231233 5.3473507e-39
-0.16537498 0.13507697 0.66276532 4.2428024e-39
-0.15512946 0.13494995 0.66214049 4.7956203e-39
-0.14508596 0.13498968 0.66234356 4.242801e-39
-0.1349602 0.13495906 0.66218734 4.3324869e-39
-0.12480476 0.13488936 0.66184366 4.2406486e-39
-0.11467747 0.13483733 0.66159356 4.1502467e-39
-0.10434698 0.13447946 0.66112065 4.7948972e-39
-0.094587579 0.13458218 0.66101533 3.5970673e-39
-0.085607521 0.13527694 0.66093481 3.9654953e-39
-0.074213348 0.13430479 0.66000003 4.6133842e-39
-0.066377148 0.13520572 0.65999991 4.4257532e-39
-0.054685719 0.13402539 0.65999997 4.1491607e-39
-0.049028575 0.13011429 0.66000003 3.5970687e-39
-0.01697143 0.13011429 0.66000003 2.9502503e-39
-0.3823505 0.14886764 0.66800004 1.0876556e-38
-0.3751559 0.14794351 0.66766667 1.1339687e-38
-0.36476532 0.14535448 0.66477293 1.0048957e-38
-0.35445416 0.14491078 0.66303271 1.1340777e-38
-0.34601569 0.14546792 0.66139466 1.1891427e-38
-0.33372918 0.14406343 0.66133338 1.1154224e-38
-0.32408798 0.14396769 0.66204774 1.060142e-38
-0.31555015 0.14345762 0.66202962 1.0508147e-38
-0.30510843 0.14509135 0.66148424 1.0048242e-38
-0.29498217 0.14479601 0.66134876 1.0694687e-38
-0.28531781 0.14434487 0.66103977 1.0695055e-38
-0.27510443 0.14349096 0.66016656 9.3106852e-39
-0.26385486 0.14431034 0.66078418 1.1800313e-38
-0.254715 0.14426544 0.66127783 9.6805397e-39
-0.24487923 0.14485468 0.66187668 1.0141162e-38
-0.23499368 0.14492705 0.66126299 1.1156031e-38
-0.22506624 0.14472279 0.6613186 9.9574826e-39
-0.2149909 0.14500804 0.66199982 1.0418459e-38
-0.20529795 0.14514768 0.6619342 1.2076539e-38
-0.19499463 0.14502709 0.66236579 1.0693978e-38
-0.18483286 0.14509845 0.66205269 8.2990458e-39
-0.17522864 0.14497133 0.66182798 7.0068721e-39
-0.16520385 0.14502615 0.66207796 7.6525946e-39
-0.15506729 0.14498159 0.66187483 7.6518757e-39
-0.14492546 0.14492501 0.66160911 6.9157526e-39
-0.13466166 0.144728 0.66071856 7.3756504e-39
-0.12457243 0.14470278 0.66060919 9.3139138e-39
-0.1145242 0.14452964 0.66032124 7.3767308e-39
-0.10479297 0.14456202 0.66049135 7.4689292e-39
-0.095728837 0.14402997 0.6601764 7.0065077e-39
-0.085981622 0.14252755 0.66015148 6.8242717e-39
-0.074360013 0.14501145 0.65999997 7.7447944e-39
-0.066491924 0.14274041 0.65999997 5.4409883e-39
-0.059714291 0.14017144 0.66000003 6.3654417e-39
-0.38298765 0.15077716 0.66800004 1.0691455e-38
-0.37568215 0.15295073 0.66775 1.1615919e-38
-0.36419556 0.15495871 0.66422939 1.1246421e-38
-0.35523742 0.1546846 0.66281271 1.0233356e-38
-0.34462544 0.15467384 0.66065496 1.0417024e-38
-0.33521327 0.15478688 0.66087019 1.0694334e-38
-0.32497302 0.15546419 0.66205072 1.106059e-38
-0.31538466 0.15544853 0.66131252 1.1061301e-38
-0.30537018 0.15269491 0.66012114 1.1430462e-38
-0.29557979 0.15438133 0.66024119 1.1892866e-38
-0.28537926 0.15497968 0.66018593 1.0324107e-38
-0.2738241 0.15437007 0.66061354 9.4957869e-39
-0.26658311 0.15519144 0.66035992 1.2722641e-38
-0.25080001 0.1556762 0.66000003 9.3085314e-39
-0.24497142 0.15525715 0.65999991 1.0231197e-38
-0.23533 0.15478861 0.66068721 1.0785085e-38
-0.22584949 0.15397887 0.66033977 9.680181e-39
-0.21489538 0.15458027 0.66038972 1.1894317e-38
-0.20511323 0.15461519 0.66003329 9.0355333e-39
-0.1950953 0.15481631 0.66081226 1.0141159e-38
-0.18532877 0.15507098 0.66189051 1.0232279e-38
-0.17509161 0.15493473 0.66131228 9.5894287e-39
-0.16502497 0.15494482 0.66135925 9.9578441e-39
-0.15498303 0.15498233 0.6615153 9.3117628e-39
-0.14501028 0.15509655 0.66199988 9.4957953e-39
-0.13478997 0.15491951 0.66055912 9.7720151e-39
-0.12484919 0.15428212 0.66005349 8.4837986e-39
-0.11432308 0.15269665 0.66024315 8.6667549e-39
-0.10512354 0.15420969 0.66042209 8.8514993e-39
-0.095892072 0.15386033 0.65999997 1.0326269e-38
-0.072285727 0.15358096 0.66000009 9.7698529e-39
-0.37310171 0.16592368 0.66631591 1.0693971e-38
-0.36484638 0.16555047 0.66617459 1.0511011e-38
-0.35456404 0.16503781 0.66320008 1.0233716e-38
-0.34465179 0.1655933 0.66099995 1.1801401e-38
-0.33522511 0.16599703 0.66229802 1.0232272e-38
-0.3251951 0.16484269 0.66158986 1.0693615e-38
-0.31637892 0.16549 0.6607222 1.207618e-38
-0.30341685 0.164032 0.66064698 1.1062031e-38
-0.29812273 0.16484948 0.66007692 1.1062032e-38
-0.2857987 0.16138084 0.6606251 1.0788681e-38
-0.27575269 0.16322237 0.66009086 9.9564036e-39
-0.26511624 0.16186047 0.66036367 1.1797798e-38
-0.25205716 0.16908573 0.66000003 1.1430453e-38
-0.24369793 0.16531432 0.6603657 9.773813e-39
-0.23610143 0.16397266 0.66022211 1.1155664e-38
-0.22416265 0.16397704 0.66007888 1.005112e-38
-0.21617803 0.16363771 0.66011894 1.0695056e-38
-0.20453674 0.16425441 0.66016054 1.0603218e-38
-0.19488497 0.16470926 0.66009361 1.1154598e-38
-0.18497121 0.16470507 0.66036499 9.772734e-39
-0.17445673 0.1634887 0.66018587 8.4830868e-39
-0.1646691 0.16468903 0.66009665 1.0695055e-38
-0.1547714 0.16483654 0.66060913 1.0603581e-38
-0.14480332 0.16462687 0.66063899 1.0142237e-38
-0.13430822 0.16419511 0.66019642 9.4972303e-39
-0.12649076 0.16280001 0.65999997 1.17092e-38
-0.11000001 0.16720001 0.66000003 9.5818715e-39
-0.10520715 0.16586429 0.65999997 9.1284548e-39
-0.099000007 0.16311429 0.66000003 8.4820022e-39
-0.37262174 0.17438114 0.66465527 1.1247138e-38
-0.36455283 0.17547402 0.66416407 1.0971274e-38
-0.35617971 0.17630515 0.66352636 1.0325549e-38
-0.34533325 0.17520164 0.66177756 1.1154952e-38
-0.33759463 0.17378154 0.66133338 9.2177637e-39
-0.32529584 0.17488977 0.6610713 1.1430452e-38
-0.31609249 0.17330293 0.66033328 1.2077989e-38
-0.30245683 0.17493367 0.66025001 1.0785447e-38
-0.29607749 0.17372647 0.66004539 1.0511379e-38
-0.28222859 0.17788574 0.66000003 1.0323398e-38
-0.27778727 0.17718497 0.66020006 1.1983984e-38
-0.26359335 0.1773681 0.65999997 1.0414156e-38
-0.25557718 0.17763428 0.66000003 9.9589161e-39
-0.24487716 0.17248668 0.66100001 9.5865462e-39
-0.23621717 0.17273144 0.66000003 1.0507429e-38
-0.22188574 0.17034286 0.66000003 1.0419527e-38
-0.21497451 0.17452209 0.66022205 9.9556875e-39
-0.2046349 0.17334603 0.65999991 1.1063836e-38
-0.19464763 0.17126478 0.66000003 1.0140446e-38
-0.18476512 0.17352067 0.65999991 1.0510305e-38
-0.17185143 0.17285715 0.66000003 8.2018125e-39
-0.16525567 0.1722544 0.66009998 8.7564254e-39
-0.15644446 0.17187938 0.65999997 1.0417386e-38
-0.14419429 0.17084573 0.66000003 9.2159518e-39
-0.13489144 0.17486858 0.66000003 9.3142739e-39
-0.12005715 0.17914286 0.66000003 1.0696134e-38
-0.11000001 0.17034286 0.66000003 1.1154591e-38
-0.10539048 0.17180954 0.66000009 1.060575e-38
-0.37229267 0.18656678 0.66155559 1.1246055e-38
-0.36270356 0.18442196 0.662579 9.6794579e-39
-0.35606444 0.1843074 0.66200006 9.4021508e-39
-0.34436676 0.18425326 0.66071695 1.143297e-38
-0.33606368 0.18563089 0.66119158 1.0141149e-38
-0.32605124 0.18230076 0.66023082 1.0140793e-38
-0.31572229 0.18317895 0.66037506 1.1615207e-38
-0.30217192 0.18885763 0.66100001 1.032482e-38
-0.29982859 0.18920001 0.66000003 1.0325545e-38
-0.28383565 0.18576437 0.66109306 1.0878003e-38
-0.27793986 0.18404414 0.66061902 9.9556847e-39
-0.26272759 0.18293278 0.66006666 1.050707e-38
-0.25750479 0.18144763 0.66000009 9.585463e-39
-0.24954288 0.18165715 0.66000003 1.0598528e-38
-0.18448573 0.18181431 0.66000003 1.0044646e-38
-0.17380001 0.18511429 0.66000003 9.9585784e-39
-0.14645715 0.1829143 0.66000003 8.1150133e-39
-0.12093716 0.18404572 0.66000003 1.0325543e-38
-0.11817144 0.18165715 0.66000003 9.7683997e-39
-0.38231832 0.19769105 0.6662001 1.2630073e-38
-0.37437916 0.19514211 0.66414642 1.1523718e-38
-0.36335775 0.1952879 0.66191792 1.0140788e-38
-0.355625 0.19511975 0.66518021 1.0970918e-38
-0.34332421 0.19631927 0.66175008 1.0326621e-38
-0.33561742 0.19494273 0.66130179 1.0879439e-38
-0.32483727 0.19676846 0.66321439 1.0141156e-38
-0.31722838 0.19569284 0.66181487 1.0695766e-38
-0.30186671 0.19181049 0.6603334 1.2353846e-38
-0.29951429 0.19202858 0.66000003 1.1526243e-38
-0.28306669 0.19045715 0.66000003 1.0139721e-38
-0.26588574 0.19318096 0.66000009 1.0784369e-38
-0.25960001 0.19045715 0.66000003 1.0599238e-38
-0.3837173 0.20444459 0.66589099 1.0879795e-38
-0.37444317 0.20575759 0.66384917 1.1524803e-38
-0.36449328 0.20522861 0.66206884 1.1523371e-38
-0.35489324 0.20514914 0.66357815 1.0418101e-38
-0.34479418 0.20537727 0.66136652 1.1154224e-38
-0.33534735 0.20628639 0.6604445 1.0876199e-38
-0.32405996 0.20462012 0.66177779 1.0970914e-38
-0.31679499 0.2071154 0.66069239 1.106059e-38
-0.30276194 0.20512383 0.66000003 1.1987579e-38
-0.28097144 0.20554288 0.66000003 1.0601774e-38
-0.27899721 0.20603593 0.66042864 9.9574826e-39
-0.38347632 0.21328135 0.66729993 1.1248932e-38
-0.37485921 0.2151821 0.66379189 1.0786876e-38
-0.36462778 0.21510348 0.66261822 1.1616285e-38
-0.35473278 0.21455808 0.66213995 1.0970191e-38
-0.34555426 0.21486054 0.66196156 1.0879435e-38
-0.33350551 0.2152053 0.66154301 1.0786163e-38
-0.32504424 0.21521939 0.66063803 1.0140792e-38
-0.3156952 0.21358125 0.66056246 9.9574812e-39
-0.30780214 0.21222262 0.66025007 1.2354577e-38
-0.27845716 0.21057144 0.66000003 1.0509915e-38
-0.38322738 0.22841319 0.66700006 1.1803902e-38
-0.37436029 0.22446424 0.66377985 1.0418095e-38
-0.36519778 0.22525412 0.66526455 1.0601409e-38
-0.35546529 0.22529094 0.66389376 9.8638436e-39
-0.34553024 0.22425719 0.66205549 1.1523719e-38
-0.33449188 0.22493501 0.66134912 1.1615921e-38
-0.32744336 0.22318412 0.66069239 1.1706674e-38
-0.31257087 0.22311266 0.66076934 1.0694323e-38
-0.30873665 0.22356489 0.66050005 1.0325908e-38
-0.29417148 0.22691429 0.66000009 9.1262912e-39
-0.28013811 0.2297762 0.66100001 1.391684e-38
-0.27845716 0.22942859 0.66000003 1.244389e-38
-0.38419715 0.23170768 0.66900003 1.078688e-38
-0.37379104 0.23451933 0.66345727 1.0511015e-38
-0.36438963 0.23465745 0.66289079 1.1155657e-38
-0.35538319 0.23492754 0.66209811 1.1062391e-38
-0.34286556 0.23607576 0.66144001 1.1341132e-38
-0.33653864 0.23534037 0.66109753 9.9571224e-39
-0.32136163 0.23960668 0.6603334 9.4947177e-39
-0.31874892 0.23900923 0.66100001 9.9585517e-39
-0.29146954 0.23103525 0.66100001 9.4954338e-39
-0.28977144 0.2313143 0.66000003 1.0691811e-38
-0.27795404 0.23179689 0.66029996 1.0694676e-38
-0.38305736 0.24508445 0.66688901 9.6798153e-39
-0.37499601 0.24559844 0.66405141 1.0601772e-38
-0.36286142 0.24445038 0.66300017 9.771285e-39
-0.35477868 0.24513693 0.66303027 1.097199e-38
-0.34562361 0.24566235 0.66168964 1.0602849e-38
-0.33566406 0.24503335 0.66101873 1.0972711e-38
-0.32874289 0.24325716 0.66000003 8.4791057e-39
-0.31224251 0.2445884 0.66020006 9.4961387e-39
-0.30988574 0.24765715 0.66000003 9.5872665e-39
-0.38393962 0.25511506 0.66318762 1.0512805e-38
-0.37501112 0.25437757 0.66325724 1.0418094e-38
-0.36575514 0.2549251 0.66212761 1.0418089e-38
-0.35433245 0.25402945 0.66154015 1.1156377e-38
-0.34566206 0.25495574 0.66318756 1.0233711e-38
-0.33558127 0.25437799 0.66245252 1.1063827e-38
-0.3291086 0.25912574 0.66200006 1.2261256e-38
-0.30630502 0.25691909 0.66011107 9.6805383e-39
-0.28977144 0.2577143 0.66000003 1.0689297e-38
-0.38298118 0.26466706 0.66108334 1.0327331e-38
-0.37537229 0.26516974 0.66334945 1.0418455e-38
-0.36506411 0.26608583 0.66401738 1.1985771e-38
-0.35432398 0.26594141 0.66328275 1.0695048e-38
-0.3463985 0.26483291 0.66507018 1.0784725e-38
-0.33536452 0.26095414 0.66528577 1.0141151e-38
-0.32248157 0.2635034 0.66033334 1.0511018e-38
-0.31666201 0.2655963 0.66058338 1.0972713e-38
-0.30751112 0.26281273 0.66000003 9.8656499e-39
-0.38339058 0.27487224 0.6621334 1.0512447e-38
-0.37582615 0.27553767 0.66451484 1.0601765e-38
-0.364784 0.27501974 0.66240346 1.0509932e-38
-0.35474208 0.27474821 0.66191655 1.1434402e-38
-0.34578088 0.27542663 0.66349137 1.0694678e-38
-0.33469373 0.27713919 0.66286123 1.0048598e-38
-0.32662955 0.27664188 0.66080952 9.8642121e-39
-0.31534117 0.27906752 0.66177785 1.0511016e-38
-0.30391431 0.27877146 0.66000003 9.6798153e-39
0.33672127 0.27739084 0.66018182 8.2061299e-39
-0.38372803 0.28039241 0.66160005 1.0602132e-38
-0.37347654 0.28135023 0.66514289 1.1705601e-38
-0.36738318 0.28042066 0.66166675 1.3000652e-38
-0.35443425 0.28252581 0.66772741 1.0231198e-38
-0.34338614 0.28140956 0.66400003 1.0326252e-38
-0.33499491 0.2812683 0.66366673 1.0236586e-38
-0.32644022 0.28098574 0.66300005 1.0880144e-38
-0.31461114 0.28112701 0.66333342 9.8656527e-39
0.33679527 0.28013811 0.66100001 7.8387795e-39
0.27095336 -0.26836669 0.67900002 2.7687458e-39
0.27515668 -0.25467891 0.67900002 4.6097619e-39
0.27526447 -0.24465558 0.67900008 5.1658181e-39
0.28199643 -0.24667847 0.67900002 4.6115597e-39
0.13450667 -0.23603335 0.67900002 9.0337214e-39
0.17783335 -0.23086001 0.67900002 6.9153897e-39
0.24676803 -0.23241201 0.67899996 5.6235509e-39
0.25378728 -0.23332909 0.67899996 3.8721968e-39
0.26494315 -0.23397921 0.67899996 6.0823696e-39
0.27534282 -0.2336427 0.67900026 4.8867229e-39
0.28295261 -0.23337483 0.67899996 6.4515221e-39
0.29377687 -0.23687023 0.67899996 5.8079519e-39
0.08471334 -0.22326167 0.67899996 1.2166945e-38
0.13500963 -0.22166297 0.67899996 8.2068432e-39
0.14543535 -0.22342332 0.67899996 9.1266499e-39
0.15153557 -0.22611779 0.67900008 8.9458389e-39
0.16514251 -0.22196835 0.67899996 6.5437149e-39
0.17589334 -0.22665668 0.67900002 7.0082958e-39
0.19723335 -0.22148335 0.67900002 6.0859738e-39
0.20219111 -0.22137557 0.67900002 6.7291894e-39
0.22611779 -0.22137557 0.67900008 6.6387972e-39
0.23939602 -0.22154801 0.67900002 6.1763841e-39
0.2450867 -0.22365431 0.67900002 5.4388149e-39
0.25521779 -0.22439337 0.67900002 5.6242795e-39
0.26541585 -0.22468875 0.67896658 6.0830913e-39
0.27465224 -0.22493649 0.67900038 5.0700352e-39
0.28391919 -0.22436321 0.67890775 7.4674691e-39
0.29437602 -0.22235852 0.67870843 6.2714538e-39
0.30617112 -0.22383636 0.67886066 6.3611243e-39
0.31463704 -0.22451495 0.67893362 6.9153757e-39
0.32262361 -0.22419675 0.67896444 6.7302712e-39
0.064666674 -0.21641779 0.67900002 1.2631523e-38
0.076557592 -0.2139826 0.67893356 1.3644587e-38
0.082980961 -0.21445681 0.67893332 1.1985791e-38
0.10411334 -0.21275334 0.67900002 1.1986867e-38
0.11464478 -0.21182953 0.67900002 9.9574755e-39
0.12325468 -0.21042536 0.67900002 9.4950513e-39
0.13757834 -0.21453172 0.67900002 9.4968659e-39
0.14181899 -0.21494204 0.67900008 1.0879072e-38
0.15972668 -0.21016668 0.67900002 8.9408153e-39
0.16557899 -0.2145963 0.67900032 8.3897925e-39
0.17007335 -0.21372336 0.67900002 8.3000982e-39
0.18947335 -0.21016668 0.67900002 8.0206386e-39
0.19731419 -0.21392541 0.6790002 7.1912451e-39
0.20385446 -0.21403007 0.67894763 7.0976047e-39
0.22679073 -0.21448825 0.67900032 7.0054105e-39
0.23551103 -0.21387263 0.67900044 6.1778135e-39
0.24511203 -0.21475677 0.67900044 5.8994259e-39
0.25456727 -0.21451293 0.67869407 5.4398855e-39
0.26572588 -0.21441539 0.678864 6.1760086e-39
0.27481261 -0.21494249 0.67821193 5.5317238e-39
0.28509441 -0.21521118 0.67818344 6.0856234e-39
0.29520267 -0.21485156 0.67841095 6.4554849e-39
0.30586368 -0.21421221 0.67892766 6.1770876e-39
0.31494242 -0.2150182 0.6782158 6.4533227e-39
0.32501033 -0.21476898 0.67812312 7.0075727e-39
0.33271903 -0.21346316 0.67868757 7.6522387e-39
-0.23150668 -0.20758002 0.67900002 1.6136744e-38
-0.052121338 -0.204476 0.67900002 2.1574492e-38
-0.032204002 -0.20395868 0.67900002 2.1759967e-38
-0.020046668 -0.20111334 0.67900002 2.0009694e-38
-0.018753335 -0.20499335 0.67900002 1.9724838e-38
0.030393336 -0.20111334 0.67900002 1.1625301e-38
0.074678853 -0.20370001 0.67900014 1.4290677e-38
0.084116414 -0.2062867 0.67900002 1.1894311e-38
0.097215556 -0.20413113 0.67900008 1.124967e-38
0.1065563 -0.2038437 0.67899996 1.0879436e-38
0.11499474 -0.20486659 0.67828101 1.0696492e-38
0.12541126 -0.20469099 0.67890429 8.4805476e-39
0.1353076 -0.20462157 0.67891145 9.1277149e-39
0.14449121 -0.20457949 0.67900038 9.3124649e-39
0.15590827 -0.20302255 0.67899996 8.7592967e-39
0.16444884 -0.20490316 0.67900038 8.3901554e-39
0.17517062 -0.20335767 0.67900026 8.6667325e-39
0.18460792 -0.2043775 0.67900038 8.3901456e-39
0.19535027 -0.20458655 0.67887783 7.4667502e-39
0.20512204 -0.20515262 0.67890269 6.4525941e-39
0.21475437 -0.20477372 0.67900044 6.3621977e-39
0.22498611 -0.20526288 0.67900038 7.6525862e-39
0.23537405 -0.20498256 0.67896479 7.1926814e-39
0.24542403 -0.20478009 0.67861134 6.5458743e-39
0.25500169 -0.20491274 0.67839223 5.8086694e-39
0.26511925 -0.20505658 0.67862093 6.0856206e-39
0.27498531 -0.20527017 0.67778152 6.1774491e-39
0.28524649 -0.20541058 0.67796797 6.2700105e-39
0.29509193 -0.20478673 0.6783964 6.8224668e-39
0.30492517 -0.20458165 0.67770183 6.9153827e-39
0.31476471 -0.20519349 0.6771667 5.9941369e-39
0.32540861 -0.20520726 0.67787331 6.5469533e-39
0.33441544 -0.20433322 0.67717034 6.8224696e-39
0.34192249 -0.20356479 0.67885715 7.8337363e-39
-0.27612668 -0.19076668 0.67900002 1.3738587e-38
-0.040740002 -0.19206001 0.67900002 2.2126588e-38
-0.032980002 -0.19292223 0.67900002 2.2680131e-38
-0.026513334 -0.19852668 0.67900002 1.9821357e-38
0.0097000003 -0.19206001 0.67900002 1.8715731e-38
0.012286668 -0.19206001 0.67900002 1.8534197e-38
0.027806668 -0.19464669 0.67900008 1.1893253e-38
0.030393336 -0.19697468 0.67900002 1.2814834e-38
0.046398334 -0.19464672 0.67900002 1.5950208e-38
0.05651867 -0.19257735 0.67900002 1.4292485e-38
0.065244667 -0.19261624 0.67875874 1.4937491e-38
0.074770801 -0.1948217 0.6788274 1.4292123e-38
0.084708124 -0.19412835 0.67895693 1.3277604e-38
0.095846616 -0.19359602 0.67864722 1.3089609e-38
0.1047408 -0.19525766 0.67887551 1.1709554e-38
0.11502518 -0.19531567 0.67882586 1.1340776e-38
0.12537062 -0.19531539 0.67882591 9.6812544e-39
0.13548815 -0.19513659 0.67895961 9.403227e-39
0.14475259 -0.19515923 0.67853171 7.9280955e-39
0.15502904 -0.19507846 0.67825043 8.4830629e-39
0.16503538 -0.19497935 0.67847484 9.0355108e-39
0.17476386 -0.19538732 0.6787709 7.9298934e-39
0.18490773 -0.19525331 0.67885983 8.6656591e-39
0.19499332 -0.19534355 0.67883086 8.0224421e-39
0.2032073 -0.19544731 0.67899996 7.099767e-39
0.21516693 -0.19521399 0.67896479 7.1912409e-39
0.22385685 -0.19440517 0.67897767 7.4671075e-39
0.23689556 -0.19629927 0.67899996 5.9008594e-39
0.24573757 -0.19514412 0.67827308 7.0072196e-39
0.25488758 -0.19513242 0.6775471 6.3618418e-39
0.26503068 -0.19521722 0.67873478 6.4533241e-39
0.27512425 -0.19526921 0.67848426 6.6380741e-39
0.28476244 -0.19475468 0.67760664 6.5455156e-39
0.29497811 -0.19552165 0.67753589 7.0068637e-39
0.30482632 -0.19516678 0.67608619 6.5458743e-39
0.31532967 -0.19518454 0.67607009 6.2689315e-39
0.32526794 -0.19505474 0.67609608 7.0968943e-39
0.33517954 -0.19522598 0.67749023 8.4812665e-39
0.34392005 -0.19491376 0.67842245 8.0195653e-39
-0.30458003 -0.18042001 0.67900002 1.4014096e-38
-0.29332802 -0.18636934 0.67899996 1.3733557e-38
-0.28130001 -0.18042001 0.67900008 1.6406848e-38
-0.27726546 -0.18533337 0.67890906 1.2815558e-38
-0.24298501 -0.18244082 0.67899996 1.7147311e-38
-0.23910502 -0.18203667 0.67899996 1.7238421e-38
-0.08471334 -0.18042001 0.67900002 1.9454e-38
-0.073935561 -0.18386891 0.67900008 2.0467071e-38
-0.044188894 -0.18444373 0.67899996 2.2036555e-38
-0.037968576 -0.18854955 0.67900002 2.2955996e-38
-0.023367893 -0.18176749 0.67885715 2.1666333e-38
-0.016090589 -0.18239807 0.67899996 1.9178496e-38
-0.00064666668 -0.18300667 0.67900002 2.1755624e-38
0.027375557 -0.18300669 0.67900008 1.6779247e-38
0.034841482 -0.18387133 0.67872572 1.4844221e-38
0.04522888 -0.18326238 0.67865884 1.5030051e-38
0.055247851 -0.18422294 0.67881292 1.502969e-38
0.064591408 -0.1847377 0.67823482 1.4292126e-38
0.074956171 -0.1847502 0.67801607 1.3829707e-38
0.085260391 -0.18510295 0.67762989 1.2630443e-38
0.095002562 -0.18502681 0.6776669 1.263151e-38
0.10448264 -0.18506892 0.67833364 1.1250028e-38
0.11511196 -0.18499057 0.67772144 1.0325902e-38
0.12510048 -0.18510519 0.678123 9.4961485e-39
0.13522834 -0.18521495 0.67743409 9.2199105e-39
0.14498082 -0.18501769 0.67841113 8.574181e-39
0.15484889 -0.18517606 0.6774646 8.6638543e-39
0.16528128 -0.18514371 0.67768437 7.4692739e-39
0.17510433 -0.18488848 0.67694336 8.7582121e-39
0.18476057 -0.18521003 0.67703849 9.1266317e-39
0.19513339 -0.18476787 0.67881715 7.376358e-39
0.20521559 -0.18437155 0.67888027 7.6525904e-39
0.21472993 -0.18498895 0.67888945 8.6674514e-39
0.2245615 -0.18498996 0.67766094 8.1128371e-39
0.23532636 -0.18491046 0.67840362 7.0075741e-39
0.24544051 -0.18500039 0.67798519 7.375635e-39
0.2546815 -0.18480819 0.67572856 7.2834393e-39
0.26513338 -0.18493684 0.67684925 6.7313488e-39
0.27496266 -0.18506061 0.67703766 7.0072196e-39
0.28483316 -0.18503574 0.67608339 7.1912437e-39
0.29479077 -0.18536305 0.67549962 7.1905319e-39
0.30497429 -0.18530248 0.675578 6.6387846e-39
0.31515312 -0.18523446 0.67532778 5.8093911e-39
0.32499596 -0.18533124 0.67536187 7.1912577e-39
0.33476692 -0.18500623 0.67650002 8.3897995e-39
0.34407842 -0.18551779 0.67689782 7.5603878e-39
-0.33222452 -0.17354721 0.67885715 1.2629005e-38
-0.29497239 -0.17155145 0.67900002 1.3552769e-38
-0.28134626 -0.17591371 0.67894733 1.4936419e-38
-0.27819604 -0.178092 0.67900002 1.7054759e-38
-0.26707336 -0.17201334 0.67900002 1.4752021e-38
-0.24185336 -0.17848001 0.67900002 1.7152351e-38
-0.23459631 -0.17237262 0.67899996 1.4201384e-38
-0.22956668 -0.17007335 0.67900002 1.2996725e-38
-0.14334446 -0.1722289 0.67900008 1.4933552e-38
-0.096353337 -0.17783335 0.67900002 1.8348022e-38
-0.08437299 -0.1744979 0.67899996 2.028412e-38
-0.076306671 -0.17007335 0.67900002 1.8257983e-38
-0.054032598 -0.17384559 0.67900026 2.2587931e-38
-0.04733574 -0.17522889 0.67893118 2.1941847e-38
-0.033907786 -0.17493512 0.67882776 2.1297912e-38
-0.023925714 -0.17494375 0.67897171 1.9361454e-38
-0.014364683 -0.17503977 0.6787501 2.0467433e-38
-0.0085791126 -0.17516045 0.67900002 1.8805756e-38
0.0058200005 -0.17136668 0.67900002 1.3094663e-38
0.016942669 -0.17666934 0.67899996 1.8534204e-38
0.027548004 -0.17744537 0.67899996 1.6688125e-38
0.034880348 -0.17616753 0.67792678 1.6135677e-38
0.045139816 -0.17644286 0.67826813 1.6781414e-38
0.054883216 -0.17681473 0.67800015 1.5582133e-38
0.06486664 -0.17727259 0.67883343 1.4751662e-38
0.074984096 -0.17575569 0.67688656 1.4108094e-38
0.085247941 -0.17494294 0.67697126 1.2630804e-38
0.094699211 -0.17515974 0.67658198 1.1801402e-38
0.10473303 -0.17503783 0.6774503 1.226166e-38
0.11453051 -0.17497234 0.67660004 1.1801744e-38
0.12496737 -0.17489733 0.67570931 1.0602134e-38
0.13517891 -0.17508858 0.67589045 9.6812544e-39
0.1449848 -0.17477477 0.67601931 9.5869008e-39
0.15450026 -0.1750998 0.67593735 9.4025011e-39
0.16473526 -0.17501567 0.67588866 7.2823631e-39
0.17507164 -0.17531951 0.67691785 8.3901568e-39
0.18479136 -0.17523868 0.67779404 9.7738102e-39
0.19495559 -0.1745531 0.6768136 8.4819867e-39
0.20505087 -0.17467436 0.67620766 8.3897967e-39
0.21468158 -0.17468134 0.6766001 7.9306094e-39
0.22492863 -0.17533538 0.67752421 8.2983213e-39
0.23531228 -0.17520009 0.67854571 7.4660257e-39
0.24529023 -0.17496747 0.67756152 7.4674761e-39
0.2552973 -0.17524981 0.67679387 6.7299082e-39
0.26497886 -0.17493799 0.67531216 6.9139366e-39
0.27526104 -0.17516753 0.67583585 6.8228325e-39
0.28532061 -0.17486298 0.67535794 7.7437098e-39
0.29521146 -0.1749406 0.67532122 7.6533121e-39
0.30474278 -0.1748735 0.67506206 8.3897911e-39
0.3150728 -0.17489779 0.675156 7.1916067e-39
0.32522216 -0.17481026 0.67501557 7.9284654e-39
0.33496886 -0.17498299 0.67526287 7.375649e-39
0.34316871 -0.17479923 0.67477053 8.0217275e-39
-0.33241794 -0.16769601 0.67880005 1.4930661e-38
-0.32915336 -0.16360667 0.67900002 1.3922272e-38
-0.31370181 -0.16443364 0.67775005 1.3828993e-38
-0.30975336 -0.16231334 0.67900008 1.2073314e-38
-0.28000668 -0.16102001 0.67900002 1.3088573e-38
-0.27764124 -0.16193072 0.67875004 1.4017697e-38
-0.25457117 -0.16403776 0.67900038 1.3552043e-38
-0.24896668 -0.16102001 0.67900002 1.2631524e-38
-0.23344669 -0.16662446 0.67900002 1.3368023e-38
-0.22164501 -0.163445 0.67899996 1.3647104e-38
-0.21922001 -0.16296001 0.67900002 1.5308074e-38
-0.14162001 -0.16716336 0.67900002 1.4751311e-38
-0.10503716 -0.16878001 0.67900002 1.7421035e-38
-0.083161347 -0.16852134 0.67900002 1.9732391e-38
-0.079540007 -0.16878001 0.67900002 1.7979234e-38
-0.05690667 -0.16878001 0.67900002 2.2405702e-38
0.087235957 -0.16849428 0.6785 1.3090688e-38
0.095875151 -0.16548316 0.6756382 1.1615922e-38
0.10538257 -0.16509874 0.67698377 1.1524454e-38
0.11482413 -0.16460328 0.67508435 1.1802836e-38
0.12474526 -0.16461299 0.67517138 1.1801392e-38
0.1348335 -0.16472276 0.67530495 1.0417736e-38
0.1446799 -0.16500604 0.6767832 9.127003e-39
0.15438871 -0.16468176 0.67545289 9.6794551e-39
0.16492866 -0.16492981 0.67646873 8.0202841e-39
0.17479379 -0.16455667 0.67629296 8.2046852e-39
0.18513422 -0.16500308 0.67709708 9.4039486e-39
0.19500339 -0.16508512 0.67633867 8.9436922e-39
0.20484382 -0.16470359 0.67588693 7.8366187e-39
0.21517365 -0.16495161 0.67690325 8.1124854e-39
0.22495775 -0.16473837 0.67584366 8.1132056e-39
0.23536514 -0.16485749 0.67615598 7.4671201e-39
0.24496461 -0.1648483 0.67558604 7.2827233e-39
0.25455576 -0.16472962 0.67618954 6.6362735e-39
0.26473179 -0.16491497 0.67595708 7.6515114e-39
0.27549964 -0.16478564 0.67587483 7.4678376e-39
0.28542858 -0.16457148 0.67499959 8.2036034e-39
0.29527026 -0.1646414 0.67468387 8.0206499e-39
0.30496112 -0.16491996 0.67473185 8.296878e-39
0.31471619 -0.16471636 0.67468822 7.6515086e-39
0.32464975 -0.16489275 0.67367864 8.2054069e-39
0.33512753 -0.16496757 0.67427254 8.2968766e-39
0.3433401 -0.16509046 0.6740554 7.1919738e-39
-0.34208673 -0.15067336 0.67900008 1.226167e-38
-0.33510271 -0.1516218 0.67900002 1.5027526e-38
-0.32481983 -0.15428403 0.67768192 1.3921183e-38
-0.3153739 -0.15210649 0.67728144 1.3736444e-38
-0.30474311 -0.15275675 0.67895234 1.4659111e-38
-0.2950474 -0.15304367 0.67888898 1.3828265e-38
-0.28410509 -0.15392168 0.67872024 1.3554924e-38
-0.27647698 -0.15434776 0.67850006 1.3737154e-38
-0.2611815 -0.1531163 0.67899996 1.2818439e-38
-0.25488794 -0.15525632 0.6788671 1.3368729e-38
-0.24724726 -0.155076 0.67806685 1.336981e-38
-0.23160827 -0.1592178 0.67866671 1.493354e-38
0.098445728 -0.15786359 0.67450005 1.3096806e-38
0.10579207 -0.1551023 0.67616075 1.0603942e-38
0.11520442 -0.15444861 0.67536342 1.0327352e-38
0.12462758 -0.15480991 0.67525828 9.6812614e-39
0.13492846 -0.15502702 0.67503476 9.5883399e-39
0.14524263 -0.15490113 0.67518145 1.0048961e-38
0.15483464 -0.15501513 0.67503965 8.8507735e-39
0.16465881 -0.15501168 0.67535692 8.0202911e-39
0.17487589 -0.15494522 0.67507106 8.2986773e-39
0.1851341 -0.15494342 0.67557406 8.9429719e-39
0.19511411 -0.15548076 0.67684317 8.2068432e-39
0.20468426 -0.15460362 0.67607927 8.1114092e-39
0.2148741 -0.15504459 0.67549986 7.099411e-39
0.22503453 -0.1549532 0.67510682 8.1128441e-39
0.23530452 -0.15494108 0.6750533 7.7444329e-39
0.24493708 -0.15493357 0.67502016 7.0064965e-39
0.25459599 -0.15484641 0.6750347 7.2823589e-39
0.26482013 -0.1548629 0.67510498 7.7440714e-39
0.27541831 -0.15508507 0.67567855 7.6522247e-39
0.28523949 -0.15482748 0.67455333 7.4685649e-39
0.29519573 -0.1552929 0.67439264 7.928813e-39
0.30455321 -0.15484521 0.67403561 7.8366187e-39
0.31498438 -0.15511264 0.67466068 7.5607493e-39
0.32504538 -0.15536116 0.6739701 7.6511499e-39
0.33503884 -0.15518147 0.67330652 7.6529561e-39
0.34352472 -0.15530929 0.6740768 7.28524e-39
-0.37312669 -0.1455 0.67900002 1.5396663e-38
-0.34362391 -0.14528447 0.67880005 1.2443898e-38
-0.33674088 -0.14739692 0.67900002 1.4658752e-38
-0.32404098 -0.14777233 0.67845011 1.2814118e-38
-0.31442904 -0.14583766 0.67840451 1.3458055e-38
-0.3061434 -0.14485034 0.67874032 1.2352786e-38
-0.29413605 -0.14599356 0.67896783 1.3459844e-38
-0.2851091 -0.14514053 0.67776376 1.3737517e-38
-0.27670863 -0.14473268 0.6769166 1.3551328e-38
-0.26427236 -0.14381215 0.67852277 1.4751301e-38
-0.25480455 -0.14502072 0.67764837 1.3554207e-38
-0.24926327 -0.14821373 0.67840004 1.3649282e-38
0.10751011 -0.14555097 0.67576313 8.5745523e-39
0.11508302 -0.14485982 0.67551976 8.6667409e-39
0.12472446 -0.14500973 0.67438686 8.206853e-39
0.13491386 -0.14519231 0.67456222 8.7614631e-39
0.14521405 -0.14521462 0.67467153 1.0603575e-38
0.15495524 -0.14501239 0.67434454 9.5883385e-39
0.16462626 -0.14533092 0.67462867 7.5603934e-39
0.17482488 -0.14525969 0.6748746 7.4696341e-39
0.18510643 -0.14525878 0.6748746 8.5741796e-39
0.19510336 -0.14502572 0.67437071 7.6540253e-39
0.20506972 -0.14483654 0.67507815 7.7454965e-39
0.21463974 -0.14523545 0.67476529 7.4685509e-39
0.22497463 -0.14526922 0.67492145 6.6395147e-39
0.23526287 -0.14527273 0.67493707 6.6373539e-39
0.2448374 -0.14501588 0.67425835 6.270735e-39
0.2546657 -0.145294 0.67488497 7.4689166e-39
0.26473349 -0.14510892 0.67450774 7.65151e-39
0.27480507 -0.14510882 0.67417169 8.4830559e-39
0.28522572 -0.14482413 0.67335725 8.0213701e-39
0.29538402 -0.14518206 0.6740979 8.5734635e-39
0.30484754 -0.14499289 0.67359418 7.7437056e-39
0.31441951 -0.14492074 0.67271954 8.2972241e-39
0.32486987 -0.1449922 0.67395371 7.5603906e-39
0.334995 -0.14497544 0.67295402 7.7447874e-39
0.34337834 -0.14517438 0.67320001 8.2972367e-39
-0.34319872 -0.13494469 0.67856264 1.548887e-38
-0.33544719 -0.13383669 0.67888254 1.3276181e-38
-0.32715461 -0.13233152 0.67899996 1.3549166e-38
-0.31251946 -0.13457853 0.67803711 1.3275453e-38
-0.3045949 -0.13476978 0.67741823 1.3920465e-38
-0.29592967 -0.13406612 0.67881268 1.6227883e-38
-0.28449047 -0.13464645 0.67787826 1.5858013e-38
-0.2754693 -0.13512237 0.67729324 1.2813763e-38
-0.26450488 -0.13493992 0.67747372 1.3368733e-38
-0.25730434 -0.13611451 0.67735714 1.2998163e-38
0.10905086 -0.13538623 0.67569238 8.4819993e-39
0.11471497 -0.13500771 0.67493308 8.0217387e-39
0.12459398 -0.13486925 0.67434347 8.6671025e-39
0.13478296 -0.13519058 0.67444974 9.3113957e-39
0.14494617 -0.1353315 0.67342865 8.9433292e-39
0.15520629 -0.13489388 0.67440653 7.2820114e-39
0.16467777 -0.13491908 0.6739499 7.0068539e-39
0.17484087 -0.13497411 0.67408174 7.1923255e-39
0.18510851 -0.13497466 0.6748746 8.3901526e-39
0.19541086 -0.13498719 0.67493713 8.1135714e-39
0.20533705 -0.13486513 0.67474967 7.4678348e-39
0.21492983 -0.13503274 0.67473304 7.6525834e-39
0.22490592 -0.13494486 0.67471832 7.1905263e-39
0.23530236 -0.13500947 0.67504644 7.0968999e-39
0.24509853 -0.13502073 0.67431116 6.636635e-39
0.25512803 -0.1346754 0.67455536 7.0061294e-39
0.2649011 -0.134987 0.67390305 7.6529491e-39
0.27478245 -0.13473389 0.67393422 7.7454993e-39
0.28530225 -0.13518755 0.6738708 8.1121294e-39
0.29473731 -0.13498104 0.67249161 8.4812637e-39
0.30473921 -0.13488603 0.67230213 8.5712985e-39
0.31445327 -0.1351794 0.67178977 8.3901498e-39
0.32551476 -0.13493438 0.67283636 7.9288116e-39
0.33527866 -0.13515837 0.67175025 7.7437098e-39
0.34330115 -0.13494001 0.67237931 7.927741e-39
-0.36229503 -0.12141168 0.67899996 1.2535715e-38
-0.35368976 -0.12386946 0.67892855 1.2723368e-38
-0.34388021 -0.12561938 0.67851526 1.2722645e-38
-0.33496326 -0.12537345 0.67814797 1.3643878e-38
-0.3250778 -0.12485681 0.67840368 1.4934973e-38
-0.31421047 -0.12487713 0.67830437 1.4564756e-38
-0.30518472 -0.12529644 0.67769825 1.3828258e-38
-0.29501078 -0.12534952 0.67849159 1.401374e-38
-0.2850281 -0.12504026 0.67764407 1.45662e-38
-0.27517933 -0.12520044 0.67823857 1.2629726e-38
-0.26508167 -0.12547037 0.67714834 1.355277e-38
-0.25945526 -0.12876192 0.67600006 1.3276144e-38
0.031453334 -0.1200362 0.67400002 4.9962372e-39
0.10824975 -0.12465241 0.67569566 9.0348046e-39
0.11477673 -0.12480136 0.67481327 8.6678227e-39
0.12468099 -0.1245447 0.67387867 1.0418464e-38
0.1349442 -0.12489825 0.67351556 1.0327706e-38
0.14490969 -0.12502964 0.67326403 8.6660193e-39
0.15519159 -0.12455144 0.67364615 7.2838051e-39
0.16521424 -0.12486753 0.67386657 7.2838079e-39
0.17467366 -0.12446127 0.67401576 7.9295332e-39
0.18489897 -0.12455046 0.67410916 8.2972353e-39
0.19523902 -0.1245946 0.67434353 8.2979528e-39
0.20515996 -0.12451829 0.67416644 8.8493315e-39
0.21498244 -0.12473977 0.67489976 9.4957785e-39
0.2247331 -0.12446944 0.67393833 8.575267e-39
0.23509808 -0.12462791 0.67425376 8.5738236e-39
0.24500358 -0.1243757 0.67383862 8.94153e-39
0.25513619 -0.12476199 0.67435449 7.8366145e-39
0.26490089 -0.12455215 0.67434984 7.928457e-39
0.27505895 -0.12540789 0.67368847 8.1132014e-39
0.28494236 -0.12456693 0.67356247 7.9298948e-39
0.29472741 -0.12541834 0.67275035 8.3890708e-39
0.30508044 -0.12545101 0.67201483 8.8518483e-39
0.31488901 -0.12518038 0.67106682 8.5723845e-39
0.32497007 -0.12516129 0.67171216 7.6522331e-39
0.33527291 -0.12536034 0.67218041 8.6667465e-39
0.34269464 -0.12534986 0.6718182 8.3898079e-39
-0.36411992 -0.11560266 0.67857599 1.3276178e-38
-0.35346785 -0.11528391 0.67877775 1.4474357e-38
-0.34550494 -0.1147522 0.67828339 1.2813755e-38
-0.33474407 -0.11505768 0.67532134 1.2539333e-38
-0.32494211 -0.11501086 0.67647362 1.3828986e-38
-0.31506521 -0.11496256 0.67745489 1.3552766e-38
-0.30490145 -0.11485405 0.67703515 1.2078355e-38
-0.29506966 -0.11463573 0.67663497 1.28152e-38
-0.28523725 -0.11516853 0.67742622 1.2539325e-38
-0.27520368 -0.11550011 0.67718357 1.2999231e-38
-0.26638144 -0.11454288 0.67705691 1.3828993e-38
-0.14304799 -0.11088298 0.67887497 5.4583112e-39
-0.13853462 -0.11095684 0.67866671 5.2746374e-39
-0.092402443 -0.11262661 0.6714375 4.4455942e-39
-0.088533342 -0.11114668 0.67200011 4.9040416e-39
-0.033425085 -0.11071335 0.67066669 5.1799096e-39
-0.024885716 -0.11039049 0.67000002 4.9969575e-39
-0.015494807 -0.11078348 0.67027277 5.0891447e-39
-0.0095714293 -0.11039048 0.67000002 5.1806284e-39
0.0072771432 -0.11067867 0.67020005 4.5377786e-39
0.013402002 -0.11104506 0.67010003 3.8938567e-39
0.029990477 -0.11294287 0.67000002 4.4466507e-39
0.032024469 -0.11593983 0.67256248 4.078241e-39
0.10840528 -0.11482242 0.67352372 9.0384073e-39
0.11503147 -0.11459219 0.67303848 9.6841299e-39
0.12504974 -0.1148756 0.67383933 1.0971996e-38
0.13472064 -0.11495196 0.67238212 9.6812488e-39
0.14499639 -0.11484495 0.6736607 7.4681935e-39
0.15509968 -0.11472464 0.67294651 7.4682005e-39
0.16521709 -0.11474565 0.67380762 7.1923269e-39
0.17475559 -0.11495918 0.67362273 8.0217303e-39
0.18490335 -0.11492269 0.67412484 7.5607493e-39
0.1950573 -0.11485348 0.67371428 8.3001178e-39
0.20540954 -0.11490097 0.67399991 8.8518455e-39
0.2152012 -0.11475553 0.67388231 8.9426048e-39
0.22475986 -0.11498281 0.6737777 9.0344445e-39
0.23494975 -0.11490814 0.67403549 8.5748956e-39
0.24522048 -0.11490703 0.67403561 8.114279e-39
0.25536302 -0.11485128 0.67369646 6.4547605e-39
0.26528123 -0.11507133 0.67369229 8.0206541e-39
0.27488229 -0.11513903 0.67298478 7.9284514e-39
0.28526819 -0.11461191 0.67268443 8.2057642e-39
0.29529685 -0.11529531 0.67169267 8.4827056e-39
0.30520222 -0.11498468 0.67073441 8.7592995e-39
0.31480017 -0.11493707 0.67046434 9.3121103e-39
0.32486898 -0.11489888 0.6706233 8.2979584e-39
0.33497673 -0.11526333 0.67049992 8.2046852e-39
0.34236908 -0.11514078 0.67080623 8.0199408e-39
-0.37610427 -0.10170314 0.67771429 1.4104494e-38
-0.36461073 -0.10223672 0.67856008 1.272264e-38
-0.35487226 -0.10219712 0.67895234 1.3644586e-38
-0.34438121 -0.10437093 0.6784783 1.2169104e-38
-0.33478585 -0.10534265 0.67624491 1.3182542e-38
-0.32456031 -0.10536154 0.67520529 1.4290327e-38
-0.31461558 -0.10462704 0.67745006 1.3366578e-38
-0.3046152 -0.10495195 0.67686546 1.3459479e-38
-0.29593256 -0.10497927 0.67646343 1.4750229e-38
-0.28499568 -0.1052209 0.67573071 1.3644593e-38
-0.27487534 -0.10509765 0.67510122 1.3644597e-38
-0.26634607 -0.10474091 0.67823106 1.3092508e-38
-0.16367535 -0.1031203 0.6722582 4.7239803e-39
-0.15518047 -0.10418011 0.6737057 4.81582e-39
-0.14489761 -0.10440266 0.67478424 4.5403093e-39
-0.13541847 -0.1045915 0.67427075 5.0909608e-39
-0.12508437 -0.10432214 0.67229539 4.7228999e-39
-0.11479791 -0.10397591 0.67255563 4.3548335e-39
-0.10467679 -0.1043535 0.6716432 4.4448683e-39
-0.094601974 -0.10482115 0.67204881 4.1675597e-39
-0.087168135 -0.10557364 0.67244446 4.2579491e-39
-0.04147619 -0.10560477 0.67000002 4.1682716e-39
-0.034849368 -0.10485127 0.67067796 4.8104026e-39
-0.025459394 -0.10578001 0.67036581 4.5366954e-39
-0.015378653 -0.10562457 0.67045826 4.7196503e-39
-0.0049926881 -0.1042128 0.67028546 4.444141e-39
0.0051093306 -0.10472297 0.67048424 4.5359807e-39
0.01381855 -0.10494699 0.67061353 4.4434263e-39
0.024885716 -0.10911429 0.67000002 4.3530258e-39
0.048282545 -0.10698731 0.67000002 4.4427005e-39
0.050409526 -0.10656191 0.67000002 4.1671996e-39
0.10839577 -0.10587674 0.67445838 9.498661e-39
0.11528265 -0.10503782 0.67250031 1.0235153e-38
0.12543377 -0.10495602 0.67196918 1.1434412e-38
0.13528378 -0.10488164 0.67232782 9.8663631e-39
0.14497484 -0.10522351 0.67288721 9.1266359e-39
0.15489778 -0.10497152 0.67207855 9.0340871e-39
0.16519938 -0.10501172 0.67232853 8.4812679e-39
0.17525256 -0.10486711 0.6718576 8.204681e-39
0.18508217 -0.10516286 0.67277217 8.2968696e-39
0.19480677 -0.10509299 0.67284393 7.8369789e-39
0.20506422 -0.10509885 0.67287529 8.8514867e-39
0.21507543 -0.10498033 0.67210948 9.311739e-39
0.2251474 -0.10484334 0.67203254 9.5883371e-39
0.23472661 -0.10510378 0.67206943 8.8496861e-39
0.24466379 -0.10495331 0.67226201 7.8369705e-39
0.25460401 -0.10493448 0.67150837 7.0072112e-39
0.2647796 -0.10514064 0.67316079 8.0217289e-39
0.27472258 -0.10526752 0.67396861 8.1128427e-39
0.28498343 -0.10511911 0.672786 8.6649431e-39
0.29534316 -0.10491512 0.67196876 8.4823427e-39
0.30477372 -0.1054762 0.67017019 8.2979556e-39
0.31585717 -0.10656192 0.67000002 8.4830769e-39
0.32568413 -0.10486362 0.67060918 8.206476e-39
0.33315176 -0.10418556 0.67000002 9.5894175e-39
0.34185955 -0.10560477 0.67000002 8.6689059e-39
-0.37262607 -0.09696953 0.67733335 1.2906313e-38
-0.36412334 -0.09602388 0.67868316 1.3646038e-38
-0.35531738 -0.095351666 0.67865813 1.3183262e-38
-0.34461296 -0.095155209 0.67673981 1.2261299e-38
-0.33440694 -0.095193841 0.67467183 1.3276891e-38
-0.32537472 -0.095033243 0.67596543 1.2722285e-38
-0.31544983 -0.095023118 0.67706084 1.3368726e-38
-0.30468634 -0.09547741 0.67675883 1.3643871e-38
-0.29494089 -0.094833553 0.67539197 1.3090709e-38
-0.28532854 -0.095070288 0.67557335 1.2999589e-38
-0.27490428 -0.095302828 0.67649209 1.5305199e-38
-0.26501447 -0.095108904 0.6776039 1.2169476e-38
-0.25935051 -0.092376016 0.67640007 1.3184334e-38
-0.17110465 -0.091857687 0.67344445 3.3410571e-39
-0.16496858 -0.094879568 0.67354393 4.8140221e-39
-0.15531063 -0.095089331 0.67426127 4.6307085e-39
-0.14506209 -0.094991185 0.67428553 4.7225426e-39
-0.13506353 -0.095083758 0.67381656 4.7221782e-39
-0.12470288 -0.094783701 0.67311782 4.6299854e-39
-0.11478133 -0.094903208 0.67328578 4.9054835e-39
-0.1049825 -0.094740868 0.67214108 5.0880755e-39
-0.095360406 -0.095312335 0.67183059 5.1795466e-39
-0.088704005 -0.097408012 0.67200005 4.7174853e-39
-0.033642862 -0.097586453 0.67038465 4.0724816e-39
-0.028714286 -0.095076196 0.67000002 3.8891568e-39
-0.012921429 -0.097309537 0.67000002 4.440911e-39
-0.0040112929 -0.096864298 0.67007148 3.8909644e-39
0.0044666668 -0.097628586 0.67000002 4.0742809e-39
0.014357144 -0.097415887 0.67000002 3.9820881e-39
0.025255574 -0.093908153 0.67055005 3.7969737e-39
0.035095241 -0.09303429 0.67000002 3.5200197e-39
0.10905343 -0.094755322 0.67224997 8.9451299e-39
0.11508238 -0.094994918 0.67181712 1.0695775e-38
0.12539263 -0.094687127 0.67175031 1.1248937e-38
0.13527806 -0.094670586 0.67062891 9.6812474e-39
0.14518379 -0.094744965 0.671 9.6812572e-39
0.15457459 -0.094879441 0.6704405 9.4968645e-39
0.16488747 -0.09455774 0.67195117 1.0143663e-38
0.17522 -0.095012113 0.67203104 9.5879672e-39
0.1849903 -0.094733812 0.67210758 9.0358794e-39
0.19464488 -0.094762869 0.67229724 8.8511308e-39
0.20478491 -0.09471415 0.6719535 8.7582163e-39
0.21471508 -0.094576865 0.67098451 7.9306122e-39
0.22511937 -0.094652243 0.67151594 8.3894352e-39
0.23500742 -0.094648324 0.67133361 7.8362558e-39
0.24526854 -0.094741508 0.67134947 7.0079371e-39
0.25506797 -0.094821364 0.67152661 6.7313446e-39
0.26502183 -0.094564728 0.67150778 8.2057586e-39
0.2750046 -0.09535218 0.67090589 8.4819783e-39
0.28517485 -0.094680488 0.67120647 8.3894352e-39
0.29478222 -0.095027775 0.67014521 9.0358836e-39
0.30466273 -0.095128313 0.67018366 7.4674803e-39
0.31829357 -0.095018186 0.67000008 8.112128e-39
0.32517576 -0.095172502 0.66999984 8.2983242e-39
0.33440453 -0.097288266 0.67000008 7.8369831e-39
0.34229258 -0.096534707 0.67000002 7.9317024e-39
-0.37517318 -0.081771433 0.67783332 1.2076546e-38
-0.3628071 -0.085874684 0.67833334 1.2814116e-38
-0.35540476 -0.084812507 0.67717314 1.3552033e-38
-0.34481296 -0.085071899 0.67461407 1.3736789e-38
-0.33537498 -0.084637865 0.67494977 1.2262386e-38
-0.32519853 -0.08473777 0.67465609 1.2261301e-38
-0.31525317 -0.085048042 0.67532247 1.2631166e-38
-0.30496973 -0.084920943 0.67470491 1.3185058e-38
-0.29530314 -0.08489272 0.675349 1.2815197e-38
-0.28501311 -0.084836774 0.67535377 1.3092868e-38
-0.27487645 -0.084784351 0.67508328 1.3000315e-38
-0.26554716 -0.085034139 0.67638695 1.2815562e-38
-0.25894019 -0.088459432 0.67600006 1.5121531e-38
-0.17080124 -0.085340858 0.67270005 3.7058627e-39
-0.16532156 -0.084535494 0.6734193 4.6267484e-39
-0.15533003 -0.084725976 0.673953 4.7196587e-39
-0.14503533 -0.084710449 0.67382801 4.535629e-39
-0.13509238 -0.084625855 0.67313814 4.7185811e-39
-0.12487295 -0.08463072 0.67320019 4.7185769e-39
-0.1145948 -0.084504738 0.67219681 4.7185727e-39
-0.10501394 -0.084772617 0.67130518 4.717851e-39
-0.095905915 -0.08415103 0.67215937 4.8089677e-39
-0.023609525 -0.084015891 0.67000002 3.6118524e-39
-0.013706286 -0.083539426 0.66999996 4.2546995e-39
-0.0080007333 -0.083688654 0.67000002 3.7044096e-39
0.0025523813 -0.081038103 0.67000002 3.9792e-39
0.025651431 -0.089460954 0.67000002 3.336706e-39
0.10895074 -0.084862113 0.67266661 9.4993995e-39
0.11487752 -0.085077748 0.67037076 1.1433344e-38
0.12514764 -0.084920831 0.67042863 1.1341853e-38
0.13551268 -0.085109621 0.67051715 1.1617357e-38
0.14491005 -0.085066497 0.67040366 8.850056e-39
0.15456657 -0.085403211 0.67054987 8.6678199e-39
0.16475001 -0.084930144 0.67049998 9.4968603e-39
0.17489263 -0.085132018 0.67070669 9.5883315e-39
0.18527626 -0.084941529 0.67112732 8.3905072e-39
